ply
format ascii 1.0
comment Created by Open3D
element vertex 3188
property double x
property double y
property double z
end_header
110 23 -317.452
111 23 -317.452
112 23 -317.452
113 23 -317.452
114 23 -317.452
115 23 -317.452
116 23 -317.452
117 23 -317.452
118 23 -317.452
119 23 -317.452
0 24 -317.452
1 24 -317.452
2 24 -317.452
3 24 -317.452
4 24 -317.452
5 24 -317.452
6 24 -317.452
7 24 -317.452
8 24 -317.452
9 24 -317.452
10 24 -317.452
11 24 -317.452
12 24 -317.452
13 24 -317.452
14 24 -317.452
15 24 -317.452
16 24 -317.452
17 24 -317.452
18 24 -317.452
19 24 -317.452
20 24 -317.452
21 24 -317.452
22 24 -317.452
23 24 -317.452
24 24 -317.452
25 24 -317.452
26 24 -20.2379
27 24 -23.7935
28 24 -21.0782
29 24 -19.3995
30 24 -18.0788
31 24 -17.092
32 24 -16.2393
33 24 -15.5038
34 24 -14.8376
35 24 -14.2238
36 24 -13.7335
37 24 -13.2962
38 24 -12.9322
39 24 -12.6211
40 24 -12.3707
41 24 -12.1837
42 24 -12.0362
43 24 -11.9374
44 24 -11.8815
45 24 -11.875
46 24 -11.9156
47 24 -11.9883
48 24 -12.1082
49 24 -12.3054
50 24 -12.5371
51 24 -12.7779
52 24 -13.0703
53 24 -13.4228
54 24 -13.8263
55 24 -14.2807
56 24 -14.7997
57 24 -15.3828
58 24 -16.0281
59 24 -16.7803
60 24 -17.6068
61 24 -18.499
62 24 -19.2274
63 24 -19.6402
64 24 -19.8196
65 24 -19.7706
66 24 -19.4881
67 24 -18.9681
68 24 -18.213
69 24 -17.2424
70 24 -15.8408
71 24 -14.6568
72 24 -13.6795
73 24 -12.8668
74 24 -12.22
75 24 -11.7026
76 24 -11.276
77 24 -10.8895
78 24 -10.5483
79 24 -10.285
80 24 -10.0908
81 24 -9.99936
82 24 -9.98573
83 24 -10.0625
84 24 -10.2047
85 24 -10.3708
86 24 -10.6476
87 24 -10.991
88 24 -11.4104
89 24 -11.9268
90 24 -12.5672
91 24 -13.3297
92 24 -14.1585
93 24 -15.0042
94 24 -15.8663
95 24 -16.7364
96 24 -17.6183
97 24 -18.4726
98 24 -19.2662
99 24 -19.9129
100 24 -19.9847
101 24 -20.892
102 24 -317.452
103 24 -317.452
104 24 -317.452
105 24 -317.452
106 24 -317.452
107 24 -317.452
108 24 -317.452
109 24 -317.452
110 24 -317.452
111 24 -317.452
112 24 -317.452
113 24 -317.452
114 24 -317.452
115 24 -317.452
116 24 -317.452
117 24 -317.452
118 24 -317.452
119 24 -317.452
0 25 -317.452
1 25 -317.452
2 25 -317.452
3 25 -317.452
4 25 -317.452
5 25 -317.452
6 25 -317.452
7 25 -317.452
8 25 -317.452
9 25 -317.452
10 25 -317.452
11 25 -317.452
12 25 -317.452
13 25 -317.452
14 25 -317.452
15 25 -317.452
16 25 -317.452
17 25 -317.452
18 25 -317.452
19 25 -317.452
20 25 -317.452
21 25 -317.452
22 25 -317.452
23 25 -317.452
24 25 -317.452
25 25 -317.452
26 25 -18.3111
27 25 -20.7984
28 25 -19.8915
29 25 -18.7403
30 25 -17.6266
31 25 -16.7459
32 25 -15.9217
33 25 -15.2229
34 25 -14.582
35 25 -14.0077
36 25 -13.5267
37 25 -13.1032
38 25 -12.7602
39 25 -12.4777
40 25 -12.2362
41 25 -12.0722
42 25 -11.9237
43 25 -11.84
44 25 -11.8108
45 25 -11.8267
46 25 -11.8734
47 25 -11.949
48 25 -12.0955
49 25 -12.2868
50 25 -12.5482
51 25 -12.8051
52 25 -13.1068
53 25 -13.4578
54 25 -13.8449
55 25 -14.3162
56 25 -14.8189
57 25 -15.3954
58 25 -16.0057
59 25 -16.695
60 25 -17.4365
61 25 -18.2027
62 25 -19.0198
63 25 -19.5814
64 25 -19.8814
65 25 -19.9349
66 25 -19.7781
67 25 -19.367
68 25 -18.7125
69 25 -17.8017
70 25 -16.3349
71 25 -15.0631
72 25 -14.021
73 25 -13.1343
74 25 -12.4351
75 25 -11.9096
76 25 -11.4626
77 25 -11.0416
78 25 -10.7078
79 25 -10.4373
80 25 -10.2406
81 25 -10.149
82 25 -10.1609
83 25 -10.2304
84 25 -10.3683
85 25 -10.5655
86 25 -10.8364
87 25 -11.1829
88 25 -11.5876
89 25 -12.0975
90 25 -12.7469
91 25 -13.4584
92 25 -14.2514
93 25 -15.0815
94 25 -15.904
95 25 -16.7535
96 25 -17.5885
97 25 -18.4266
98 25 -19.2163
99 25 -19.9027
100 25 -20.8584
101 25 -317.452
102 25 -317.452
103 25 -317.452
104 25 -317.452
105 25 -317.452
106 25 -317.452
107 25 -317.452
108 25 -317.452
109 25 -317.452
110 25 -317.452
111 25 -317.452
112 25 -317.452
113 25 -317.452
114 25 -317.452
115 25 -317.452
116 25 -317.452
117 25 -317.452
118 25 -317.452
119 25 -317.452
0 26 -317.452
1 26 -317.452
2 26 -317.452
3 26 -317.452
4 26 -317.452
5 26 -317.452
6 26 -317.452
7 26 -317.452
8 26 -317.452
9 26 -317.452
10 26 -317.452
11 26 -317.452
12 26 -317.452
13 26 -317.452
14 26 -317.452
15 26 -317.452
16 26 -317.452
17 26 -317.452
18 26 -317.452
19 26 -317.452
20 26 -317.452
21 26 -317.452
22 26 -317.452
23 26 -317.452
24 26 -317.452
25 26 -317.452
26 26 -20.5708
27 26 -20.1145
28 26 -19.3373
29 26 -18.2371
30 26 -17.2242
31 26 -16.4094
32 26 -15.6398
33 26 -14.9425
34 26 -14.3338
35 26 -13.7863
36 26 -13.3374
37 26 -12.9231
38 26 -12.6001
39 26 -12.3263
40 26 -12.1079
41 26 -11.955
42 26 -11.8446
43 26 -11.7584
44 26 -11.729
45 26 -11.779
46 26 -11.8338
47 26 -11.9315
48 26 -12.0819
49 26 -12.3084
50 26 -12.537
51 26 -12.8291
52 26 -13.1537
53 26 -13.525
54 26 -13.9305
55 26 -14.3809
56 26 -14.8875
57 26 -15.4224
58 26 -16.0153
59 26 -16.6523
60 26 -17.3248
61 26 -18.0299
62 26 -18.7847
63 26 -19.5163
64 26 -19.9282
65 26 -20.1078
66 26 -20.0601
67 26 -19.7797
68 26 -19.2458
69 26 -18.2739
70 26 -16.7633
71 26 -15.4624
72 26 -14.3912
73 26 -13.4806
74 26 -12.729
75 26 -12.1482
76 26 -11.6544
77 26 -11.2071
78 26 -10.8674
79 26 -10.6176
80 26 -10.4385
81 26 -10.359
82 26 -10.3693
83 26 -10.4404
84 26 -10.5855
85 26 -10.7744
86 26 -11.0298
87 26 -11.3798
88 26 -11.8033
89 26 -12.301
90 26 -12.8942
91 26 -13.5687
92 26 -14.3423
93 26 -15.1614
94 26 -15.9929
95 26 -16.8116
96 26 -17.6483
97 26 -18.4883
98 26 -19.3235
99 26 -20.1117
100 26 -21.2786
101 26 -317.452
102 26 -317.452
103 26 -317.452
104 26 -317.452
105 26 -317.452
106 26 -317.452
107 26 -317.452
108 26 -317.452
109 26 -317.452
110 26 -317.452
111 26 -317.452
112 26 -317.452
113 26 -317.452
114 26 -317.452
115 26 -317.452
116 26 -317.452
117 26 -317.452
118 26 -317.452
119 26 -317.452
0 27 -317.452
1 27 -317.452
2 27 -317.452
3 27 -317.452
4 27 -317.452
5 27 -317.452
6 27 -317.452
7 27 -317.452
8 27 -317.452
9 27 -317.452
10 27 -317.452
11 27 -317.452
12 27 -317.452
13 27 -317.452
14 27 -317.452
15 27 -317.452
16 27 -317.452
17 27 -317.452
18 27 -317.452
19 27 -317.452
20 27 -317.452
21 27 -317.452
22 27 -317.452
23 27 -317.452
24 27 -317.452
25 27 -317.452
26 27 -22.2272
27 27 -20.2896
28 27 -19.1077
29 27 -17.9059
30 27 -16.8913
31 27 -16.0983
32 27 -15.3565
33 27 -14.6889
34 27 -14.0933
35 27 -13.5747
36 27 -13.1394
37 27 -12.7589
38 27 -12.4527
39 27 -12.1852
40 27 -11.9919
41 27 -11.8696
42 27 -11.7528
43 27 -11.6825
44 27 -11.6676
45 27 -11.7203
46 27 -11.7949
47 27 -11.9084
48 27 -12.0849
49 27 -12.3236
50 27 -12.574
51 27 -12.8998
52 27 -13.2285
53 27 -13.616
54 27 -14.0235
55 27 -14.4598
56 27 -14.9588
57 27 -15.4664
58 27 -16.0456
59 27 -16.6494
60 27 -17.2813
61 27 -17.9316
62 27 -18.6453
63 27 -19.3747
64 27 -19.973
65 27 -20.2909
66 27 -20.3941
67 27 -20.2329
68 27 -19.6632
69 27 -18.694
70 27 -17.1581
71 27 -15.8269
72 27 -14.7088
73 27 -13.784
74 27 -13.016
75 27 -12.3849
76 27 -11.8716
77 27 -11.4353
78 27 -11.0903
79 27 -10.8296
80 27 -10.659
81 27 -10.5933
82 27 -10.5945
83 27 -10.6689
84 27 -10.8033
85 27 -10.9863
86 27 -11.2587
87 27 -11.6011
88 27 -11.9859
89 27 -12.4833
90 27 -13.0653
91 27 -13.6934
92 27 -14.4453
93 27 -15.2342
94 27 -16.0602
95 27 -16.8944
96 27 -17.7332
97 27 -18.6015
98 27 -19.4586
99 27 -20.3306
100 27 -21.5436
101 27 -317.452
102 27 -317.452
103 27 -317.452
104 27 -317.452
105 27 -317.452
106 27 -317.452
107 27 -317.452
108 27 -317.452
109 27 -317.452
110 27 -317.452
111 27 -317.452
112 27 -317.452
113 27 -317.452
114 27 -317.452
115 27 -317.452
116 27 -317.452
117 27 -317.452
118 27 -317.452
119 27 -317.452
0 28 -317.452
1 28 -317.452
2 28 -317.452
3 28 -317.452
4 28 -317.452
5 28 -317.452
6 28 -317.452
7 28 -317.452
8 28 -317.452
9 28 -317.452
10 28 -317.452
11 28 -317.452
12 28 -317.452
13 28 -317.452
14 28 -317.452
15 28 -317.452
16 28 -317.452
17 28 -317.452
18 28 -317.452
19 28 -317.452
20 28 -317.452
21 28 -317.452
22 28 -317.452
23 28 -317.452
24 28 -317.452
25 28 -22.0149
26 28 -24.0054
27 28 -20.5708
28 28 -18.8804
29 28 -17.5977
30 28 -16.593
31 28 -15.8114
32 28 -15.0925
33 28 -14.4405
34 28 -13.8581
35 28 -13.3609
36 28 -12.9503
37 28 -12.5757
38 28 -12.3067
39 28 -12.0529
40 28 -11.8799
41 28 -11.7695
42 28 -11.6836
43 28 -11.6292
44 28 -11.6337
45 28 -11.672
46 28 -11.7816
47 28 -11.9149
48 28 -12.1114
49 28 -12.3552
50 28 -12.6291
51 28 -12.9671
52 28 -13.3143
53 28 -13.7114
54 28 -14.105
55 28 -14.5531
56 28 -15.0253
57 28 -15.5497
58 28 -16.0933
59 28 -16.6508
60 28 -17.2767
61 28 -17.9119
62 28 -18.5787
63 28 -19.2761
64 28 -19.9799
65 28 -20.4752
66 28 -20.7498
67 28 -20.578
68 28 -19.9687
69 28 -19.0088
70 28 -17.4823
71 28 -16.1395
72 28 -14.9991
73 28 -14.0549
74 28 -13.2783
75 28 -12.638
76 28 -12.1157
77 28 -11.6828
78 28 -11.3378
79 28 -11.07
80 28 -10.8751
81 28 -10.8156
82 28 -10.8214
83 28 -10.8844
84 28 -11.0398
85 28 -11.2388
86 28 -11.4898
87 28 -11.8288
88 28 -12.2344
89 28 -12.719
90 28 -13.2616
91 28 -13.8287
92 28 -14.545
93 28 -15.3438
94 28 -16.1823
95 28 -17.0302
96 28 -17.8905
97 28 -18.7366
98 28 -19.6047
99 28 -20.4819
100 28 -21.7769
101 28 -317.452
102 28 -317.452
103 28 -317.452
104 28 -317.452
105 28 -317.452
106 28 -317.452
107 28 -317.452
108 28 -317.452
109 28 -317.452
110 28 -317.452
111 28 -317.452
112 28 -317.452
113 28 -317.452
114 28 -317.452
115 28 -317.452
116 28 -317.452
117 28 -317.452
118 28 -317.452
119 28 -317.452
0 29 -317.452
1 29 -317.452
2 29 -317.452
3 29 -317.452
4 29 -317.452
5 29 -317.452
6 29 -317.452
7 29 -317.452
8 29 -317.452
9 29 -317.452
10 29 -317.452
11 29 -317.452
12 29 -317.452
13 29 -317.452
14 29 -317.452
15 29 -317.452
16 29 -317.452
17 29 -317.452
18 29 -317.452
19 29 -317.452
20 29 -317.452
21 29 -317.452
22 29 -317.452
23 29 -317.452
24 29 -317.452
25 29 -18.1642
26 29 -22.3229
27 29 -19.8715
28 29 -18.3382
29 29 -17.2102
30 29 -16.2888
31 29 -15.5507
32 29 -14.8611
33 29 -14.2476
34 29 -13.6894
35 29 -13.1992
36 29 -12.8182
37 29 -12.4698
38 29 -12.2109
39 29 -11.975
40 29 -11.8066
41 29 -11.7011
42 29 -11.6417
43 29 -11.6057
44 29 -11.6327
45 29 -11.6837
46 29 -11.8085
47 29 -11.9585
48 29 -12.1801
49 29 -12.4513
50 29 -12.7145
51 29 -13.0521
52 29 -13.4089
53 29 -13.8075
54 29 -14.2053
55 29 -14.6573
56 29 -15.142
57 29 -15.6427
58 29 -16.1838
59 29 -16.7416
60 29 -17.354
61 29 -17.9565
62 29 -18.6223
63 29 -19.3315
64 29 -20.026
65 29 -20.6709
66 29 -20.9912
67 29 -20.815
68 29 -20.2498
69 29 -19.2579
70 29 -17.7404
71 29 -16.4044
72 29 -15.2729
73 29 -14.3039
74 29 -13.5365
75 29 -12.8934
76 29 -12.3714
77 29 -11.926
78 29 -11.564
79 29 -11.3132
80 29 -11.1229
81 29 -11.0406
82 29 -11.0627
83 29 -11.1415
84 29 -11.2946
85 29 -11.4733
86 29 -11.7368
87 29 -12.0657
88 29 -12.4679
89 29 -12.9105
90 29 -13.418
91 29 -13.9604
92 29 -14.6457
93 29 -15.4453
94 29 -16.2899
95 29 -17.1832
96 29 -18.0565
97 29 -18.9518
98 29 -19.7795
99 29 -20.5119
100 29 -21.8743
101 29 -317.452
102 29 -317.452
103 29 -317.452
104 29 -317.452
105 29 -317.452
106 29 -317.452
107 29 -317.452
108 29 -317.452
109 29 -317.452
110 29 -317.452
111 29 -317.452
112 29 -317.452
113 29 -317.452
114 29 -317.452
115 29 -317.452
116 29 -317.452
117 29 -317.452
118 29 -317.452
119 29 -317.452
0 30 -317.452
1 30 -317.452
2 30 -317.452
3 30 -317.452
4 30 -317.452
5 30 -317.452
6 30 -317.452
7 30 -317.452
8 30 -317.452
9 30 -317.452
10 30 -317.452
11 30 -317.452
12 30 -317.452
13 30 -317.452
14 30 -317.452
15 30 -317.452
16 30 -317.452
17 30 -317.452
18 30 -317.452
19 30 -317.452
20 30 -317.452
21 30 -317.452
22 30 -317.452
23 30 -317.452
24 30 -317.452
25 30 -16.6324
26 30 -18.9694
27 30 -18.5554
28 30 -17.6751
29 30 -16.8073
30 30 -15.9981
31 30 -15.3173
32 30 -14.6634
33 30 -14.0968
34 30 -13.5772
35 30 -13.0912
36 30 -12.7045
37 30 -12.3856
38 30 -12.1382
39 30 -11.9202
40 30 -11.7606
41 30 -11.6613
42 30 -11.6117
43 30 -11.5945
44 30 -11.6382
45 30 -11.72
46 30 -11.8714
47 30 -12.0389
48 30 -12.2718
49 30 -12.5379
50 30 -12.826
51 30 -13.1622
52 30 -13.5112
53 30 -13.9238
54 30 -14.339
55 30 -14.794
56 30 -15.2674
57 30 -15.7833
58 30 -16.3099
59 30 -16.8691
60 30 -17.4819
61 30 -18.1104
62 30 -18.776
63 30 -19.4777
64 30 -20.2306
65 30 -20.8536
66 30 -21.1426
67 30 -21.0093
68 30 -20.4358
69 30 -19.4719
70 30 -17.9714
71 30 -16.6349
72 30 -15.5192
73 30 -14.5564
74 30 -13.7812
75 30 -13.1434
76 30 -12.6248
77 30 -12.1653
78 30 -11.8094
79 30 -11.5609
80 30 -11.3922
81 30 -11.309
82 30 -11.3143
83 30 -11.397
84 30 -11.5572
85 30 -11.7538
86 30 -12.0167
87 30 -12.3241
88 30 -12.686
89 30 -13.114
90 30 -13.5949
91 30 -14.1179
92 30 -14.7291
93 30 -15.5519
94 30 -16.4359
95 30 -17.3434
96 30 -18.289
97 30 -19.2416
98 30 -20.1221
99 30 -20.6878
100 30 -21.5863
101 30 -317.452
102 30 -317.452
103 30 -317.452
104 30 -317.452
105 30 -317.452
106 30 -317.452
107 30 -317.452
108 30 -317.452
109 30 -317.452
110 30 -317.452
111 30 -317.452
112 30 -317.452
113 30 -317.452
114 30 -317.452
115 30 -317.452
116 30 -317.452
117 30 -317.452
118 30 -317.452
119 30 -317.452
0 31 -317.452
1 31 -317.452
2 31 -317.452
3 31 -317.452
4 31 -317.452
5 31 -317.452
6 31 -317.452
7 31 -317.452
8 31 -317.452
9 31 -317.452
10 31 -317.452
11 31 -317.452
12 31 -317.452
13 31 -317.452
14 31 -317.452
15 31 -317.452
16 31 -317.452
17 31 -317.452
18 31 -317.452
19 31 -317.452
20 31 -317.452
21 31 -317.452
22 31 -317.452
23 31 -317.452
24 31 -317.452
25 31 -18.6309
26 31 -18.7481
27 31 -18.0084
28 31 -17.2474
29 31 -16.5168
30 31 -15.7641
31 31 -15.1405
32 31 -14.5134
33 31 -13.9537
34 31 -13.4678
35 31 -13.0201
36 31 -12.6434
37 31 -12.3184
38 31 -12.09
39 31 -11.8893
40 31 -11.736
41 31 -11.6546
42 31 -11.6054
43 31 -11.5977
44 31 -11.6815
45 31 -11.7848
46 31 -11.9239
47 31 -12.1126
48 31 -12.3402
49 31 -12.6204
50 31 -12.93
51 31 -13.2496
52 31 -13.6138
53 31 -14.0182
54 31 -14.4393
55 31 -14.9166
56 31 -15.393
57 31 -15.9108
58 31 -16.4437
59 31 -17.0335
60 31 -17.645
61 31 -18.2872
62 31 -18.998
63 31 -19.7411
64 31 -20.4054
65 31 -21.012
66 31 -21.235
67 31 -21.0857
68 31 -20.5441
69 31 -19.6187
70 31 -18.1421
71 31 -16.8192
72 31 -15.7177
73 31 -14.772
74 31 -14.0202
75 31 -13.3962
76 31 -12.8728
77 31 -12.4239
78 31 -12.0762
79 31 -11.8228
80 31 -11.6389
81 31 -11.5768
82 31 -11.5883
83 31 -11.6944
84 31 -11.8395
85 31 -12.0249
86 31 -12.2797
87 31 -12.5652
88 31 -12.9205
89 31 -13.328
90 31 -13.7856
91 31 -14.2695
92 31 -14.8754
93 31 -15.6281
94 31 -16.5621
95 31 -17.5294
96 31 -18.5511
97 31 -19.658
98 31 -20.8628
99 31 -22.1318
100 31 -22.7
101 31 -317.452
102 31 -317.452
103 31 -317.452
104 31 -317.452
105 31 -317.452
106 31 -317.452
107 31 -317.452
108 31 -317.452
109 31 -317.452
110 31 -317.452
111 31 -317.452
112 31 -317.452
113 31 -317.452
114 31 -317.452
115 31 -317.452
116 31 -317.452
117 31 -317.452
118 31 -317.452
119 31 -317.452
0 32 -317.452
1 32 -317.452
2 32 -317.452
3 32 -317.452
4 32 -317.452
5 32 -317.452
6 32 -317.452
7 32 -317.452
8 32 -317.452
9 32 -317.452
10 32 -317.452
11 32 -317.452
12 32 -317.452
13 32 -317.452
14 32 -317.452
15 32 -317.452
16 32 -317.452
17 32 -317.452
18 32 -317.452
19 32 -317.452
20 32 -317.452
21 32 -317.452
22 32 -317.452
23 32 -317.452
24 32 -317.452
25 32 -19.2199
26 32 -18.6016
27 32 -17.8068
28 32 -17.0474
29 32 -16.3189
30 32 -15.6285
31 32 -15.0059
32 32 -14.3968
33 32 -13.8627
34 32 -13.3856
35 32 -12.9665
36 32 -12.6037
37 32 -12.2869
38 32 -12.0669
39 32 -11.8876
40 32 -11.7534
41 32 -11.6817
42 32 -11.6522
43 32 -11.6643
44 32 -11.7321
45 32 -11.8405
46 32 -11.9888
47 32 -12.1745
48 32 -12.407
49 32 -12.7015
50 32 -13.0153
51 32 -13.3582
52 32 -13.7272
53 32 -14.1401
54 32 -14.5713
55 32 -15.0377
56 32 -15.5403
57 32 -16.0598
58 32 -16.6075
59 32 -17.1949
60 32 -17.8357
61 32 -18.4996
62 32 -19.2251
63 32 -19.932
64 32 -20.5665
65 32 -21.1516
66 32 -21.3594
67 32 -21.1104
68 32 -20.5821
69 32 -19.6888
70 32 -18.2545
71 32 -16.9642
72 32 -15.9002
73 32 -14.9854
74 32 -14.2658
75 32 -13.6511
76 32 -13.1466
77 32 -12.718
78 32 -12.3588
79 32 -12.1081
80 32 -11.9182
81 32 -11.8593
82 32 -11.8604
83 32 -11.9477
84 32 -12.0915
85 32 -12.2814
86 32 -12.5242
87 32 -12.8158
88 32 -13.14
89 32 -13.5351
90 32 -13.9666
91 32 -14.4376
92 32 -15.0036
93 32 -15.7356
94 32 -16.6582
95 32 -17.6747
96 32 -18.8048
97 32 -20.0371
98 32 -21.5648
99 32 -23.8408
100 32 -23.4061
101 32 -317.452
102 32 -317.452
103 32 -317.452
104 32 -317.452
105 32 -317.452
106 32 -317.452
107 32 -317.452
108 32 -317.452
109 32 -317.452
110 32 -317.452
111 32 -317.452
112 32 -317.452
113 32 -317.452
114 32 -317.452
115 32 -317.452
116 32 -317.452
117 32 -317.452
118 32 -317.452
119 32 -317.452
0 33 -317.452
1 33 -317.452
2 33 -317.452
3 33 -317.452
4 33 -317.452
5 33 -317.452
6 33 -317.452
7 33 -317.452
8 33 -317.452
9 33 -317.452
10 33 -317.452
11 33 -317.452
12 33 -317.452
13 33 -317.452
14 33 -317.452
15 33 -317.452
16 33 -317.452
17 33 -317.452
18 33 -317.452
19 33 -317.452
20 33 -317.452
21 33 -317.452
22 33 -317.452
23 33 -317.452
24 33 -317.452
25 33 -19.9986
26 33 -18.8028
27 33 -17.8344
28 33 -16.9999
29 33 -16.2311
30 33 -15.5446
31 33 -14.9261
32 33 -14.3297
33 33 -13.825
34 33 -13.37
35 33 -12.9683
36 33 -12.6097
37 33 -12.3147
38 33 -12.0946
39 33 -11.9191
40 33 -11.7935
41 33 -11.7328
42 33 -11.7077
43 33 -11.7294
44 33 -11.8097
45 33 -11.9093
46 33 -12.0615
47 33 -12.2402
48 33 -12.4881
49 33 -12.7812
50 33 -13.0998
51 33 -13.4567
52 33 -13.8441
53 33 -14.2708
54 33 -14.7264
55 33 -15.183
56 33 -15.6928
57 33 -16.2339
58 33 -16.7951
59 33 -17.3872
60 33 -18.053
61 33 -18.7447
62 33 -19.4052
63 33 -20.0333
64 33 -20.6235
65 33 -21.1668
66 33 -21.3637
67 33 -21.1535
68 33 -20.5601
69 33 -19.6603
70 33 -18.3122
71 33 -17.0543
72 33 -16.0529
73 33 -15.1851
74 33 -14.4826
75 33 -13.9028
76 33 -13.4013
77 33 -12.9788
78 33 -12.6393
79 33 -12.389
80 33 -12.2166
81 33 -12.138
82 33 -12.1414
83 33 -12.2102
84 33 -12.3543
85 33 -12.5353
86 33 -12.7596
87 33 -13.0459
88 33 -13.3822
89 33 -13.7419
90 33 -14.1579
91 33 -14.6081
92 33 -15.1469
93 33 -15.8625
94 33 -16.736
95 33 -17.7781
96 33 -18.9271
97 33 -20.173
98 33 -21.585
99 33 -24.0491
100 33 -317.452
101 33 -317.452
102 33 -317.452
103 33 -317.452
104 33 -317.452
105 33 -317.452
106 33 -317.452
107 33 -317.452
108 33 -317.452
109 33 -317.452
110 33 -317.452
111 33 -317.452
112 33 -317.452
113 33 -317.452
114 33 -317.452
115 33 -317.452
116 33 -317.452
117 33 -317.452
118 33 -317.452
119 33 -317.452
0 34 -317.452
1 34 -317.452
2 34 -317.452
3 34 -317.452
4 34 -317.452
5 34 -317.452
6 34 -317.452
7 34 -317.452
8 34 -317.452
9 34 -317.452
10 34 -317.452
11 34 -317.452
12 34 -317.452
13 34 -317.452
14 34 -317.452
15 34 -317.452
16 34 -317.452
17 34 -317.452
18 34 -317.452
19 34 -317.452
20 34 -317.452
21 34 -317.452
22 34 -317.452
23 34 -317.452
24 34 -317.452
25 34 -20.2816
26 34 -18.9818
27 34 -17.9545
28 34 -17.0427
29 34 -16.2158
30 34 -15.5263
31 34 -14.9116
32 34 -14.3312
33 34 -13.8167
34 34 -13.373
35 34 -12.9724
36 34 -12.6604
37 34 -12.3688
38 34 -12.151
39 34 -11.9817
40 34 -11.8617
41 34 -11.7878
42 34 -11.7624
43 34 -11.7851
44 34 -11.8693
45 34 -11.9822
46 34 -12.1532
47 34 -12.3341
48 34 -12.5774
49 34 -12.8783
50 34 -13.2103
51 34 -13.5721
52 34 -13.9572
53 34 -14.3993
54 34 -14.8572
55 34 -15.3456
56 34 -15.8704
57 34 -16.443
58 34 -17.0267
59 34 -17.6371
60 34 -18.2846
61 34 -18.8701
62 34 -19.4811
63 34 -20.0639
64 34 -20.6008
65 34 -21.124
66 34 -21.2777
67 34 -21.0407
68 34 -20.4634
69 34 -19.5592
70 34 -18.2799
71 34 -17.1322
72 34 -16.2015
73 34 -15.3985
74 34 -14.7271
75 34 -14.1669
76 34 -13.67
77 34 -13.2621
78 34 -12.9281
79 34 -12.6771
80 34 -12.5164
81 34 -12.433
82 34 -12.4186
83 34 -12.4782
84 34 -12.5915
85 34 -12.7908
86 34 -13.0076
87 34 -13.2703
88 34 -13.5991
89 34 -13.9653
90 34 -14.3526
91 34 -14.792
92 34 -15.3177
93 34 -15.9984
94 34 -16.8177
95 34 -17.8322
96 34 -18.9963
97 34 -20.2378
98 34 -21.5928
99 34 -24.5479
100 34 -317.452
101 34 -317.452
102 34 -317.452
103 34 -317.452
104 34 -317.452
105 34 -317.452
106 34 -317.452
107 34 -317.452
108 34 -317.452
109 34 -317.452
110 34 -317.452
111 34 -317.452
112 34 -317.452
113 34 -317.452
114 34 -317.452
115 34 -317.452
116 34 -317.452
117 34 -317.452
118 34 -317.452
119 34 -317.452
0 35 -317.452
1 35 -317.452
2 35 -317.452
3 35 -317.452
4 35 -317.452
5 35 -317.452
6 35 -317.452
7 35 -317.452
8 35 -317.452
9 35 -317.452
10 35 -317.452
11 35 -317.452
12 35 -317.452
13 35 -317.452
14 35 -317.452
15 35 -317.452
16 35 -317.452
17 35 -317.452
18 35 -317.452
19 35 -317.452
20 35 -317.452
21 35 -317.452
22 35 -317.452
23 35 -317.452
24 35 -317.452
25 35 -20.5432
26 35 -19.2052
27 35 -18.0961
28 35 -17.1182
29 35 -16.2854
30 35 -15.5566
31 35 -14.9415
32 35 -14.373
33 35 -13.8428
34 35 -13.416
35 35 -13.0236
36 35 -12.7099
37 35 -12.439
38 35 -12.2356
39 35 -12.0439
40 35 -11.9081
41 35 -11.8458
42 35 -11.817
43 35 -11.8477
44 35 -11.9119
45 35 -12.0405
46 35 -12.2125
47 35 -12.4192
48 35 -12.6757
49 35 -12.982
50 35 -13.3047
51 35 -13.6773
52 35 -14.0712
53 35 -14.5126
54 35 -14.9994
55 35 -15.4981
56 35 -16.0558
57 35 -16.6396
58 35 -17.2483
59 35 -17.8493
60 35 -18.4549
61 35 -18.9416
62 35 -19.487
63 35 -19.996
64 35 -20.473
65 35 -20.9175
66 35 -21.0238
67 35 -20.7843
68 35 -20.2186
69 35 -19.3633
70 35 -18.2491
71 35 -17.2609
72 35 -16.3826
73 35 -15.6107
74 35 -14.9901
75 35 -14.4414
76 35 -13.9554
77 35 -13.5534
78 35 -13.2371
79 35 -12.9839
80 35 -12.8089
81 35 -12.7161
82 35 -12.7003
83 35 -12.7482
84 35 -12.8412
85 35 -13.0085
86 35 -13.2515
87 35 -13.5103
88 35 -13.8173
89 35 -14.1749
90 35 -14.5619
91 35 -14.9863
92 35 -15.4873
93 35 -16.1271
94 35 -16.9238
95 35 -17.8802
96 35 -19.013
97 35 -20.2489
98 35 -21.6365
99 35 -25.3413
100 35 -317.452
101 35 -317.452
102 35 -317.452
103 35 -317.452
104 35 -317.452
105 35 -317.452
106 35 -317.452
107 35 -317.452
108 35 -317.452
109 35 -317.452
110 35 -317.452
111 35 -317.452
112 35 -317.452
113 35 -317.452
114 35 -317.452
115 35 -317.452
116 35 -317.452
117 35 -317.452
118 35 -317.452
119 35 -317.452
0 36 -317.452
1 36 -317.452
2 36 -317.452
3 36 -317.452
4 36 -317.452
5 36 -317.452
6 36 -317.452
7 36 -317.452
8 36 -317.452
9 36 -317.452
10 36 -317.452
11 36 -317.452
12 36 -317.452
13 36 -317.452
14 36 -317.452
15 36 -317.452
16 36 -317.452
17 36 -317.452
18 36 -317.452
19 36 -317.452
20 36 -317.452
21 36 -317.452
22 36 -317.452
23 36 -317.452
24 36 -22.6267
25 36 -20.8866
26 36 -19.4418
27 36 -18.2308
28 36 -17.2337
29 36 -16.3712
30 36 -15.632
31 36 -15.001
32 36 -14.4248
33 36 -13.9125
34 36 -13.48
35 36 -13.1027
36 36 -12.7947
37 36 -12.5277
38 36 -12.3038
39 36 -12.0978
40 36 -11.9445
41 36 -11.8823
42 36 -11.8668
43 36 -11.8916
44 36 -11.9637
45 36 -12.1053
46 36 -12.2854
47 36 -12.4907
48 36 -12.758
49 36 -13.0721
50 36 -13.4052
51 36 -13.7725
52 36 -14.1883
53 36 -14.6424
54 36 -15.1461
55 36 -15.6536
56 36 -16.2255
57 36 -16.8262
58 36 -17.4691
59 36 -18.02
60 36 -18.5132
61 36 -18.9195
62 36 -19.3687
63 36 -19.7843
64 36 -20.1978
65 36 -20.5941
66 36 -20.6556
67 36 -20.3886
68 36 -19.7962
69 36 -18.9781
70 36 -18.1599
71 36 -17.3992
72 36 -16.6126
73 36 -15.8854
74 36 -15.264
75 36 -14.7543
76 36 -14.296
77 36 -13.8857
78 36 -13.5604
79 36 -13.3035
80 36 -13.1206
81 36 -13.0039
82 36 -12.9787
83 36 -13.0188
84 36 -13.11
85 36 -13.2447
86 36 -13.459
87 36 -13.7397
88 36 -14.0397
89 36 -14.3855
90 36 -14.7781
91 36 -15.2006
92 36 -15.6738
93 36 -16.2941
94 36 -17.0383
95 36 -17.9122
96 36 -18.9787
97 36 -20.1362
98 36 -21.4422
99 36 -26.6462
100 36 -317.452
101 36 -317.452
102 36 -317.452
103 36 -317.452
104 36 -317.452
105 36 -317.452
106 36 -317.452
107 36 -317.452
108 36 -317.452
109 36 -317.452
110 36 -317.452
111 36 -317.452
112 36 -317.452
113 36 -317.452
114 36 -317.452
115 36 -317.452
116 36 -317.452
117 36 -317.452
118 36 -317.452
119 36 -317.452
0 37 -317.452
1 37 -317.452
2 37 -317.452
3 37 -317.452
4 37 -317.452
5 37 -317.452
6 37 -317.452
7 37 -317.452
8 37 -317.452
9 37 -317.452
10 37 -317.452
11 37 -317.452
12 37 -317.452
13 37 -317.452
14 37 -317.452
15 37 -317.452
16 37 -317.452
17 37 -317.452
18 37 -317.452
19 37 -317.452
20 37 -317.452
21 37 -317.452
22 37 -317.452
23 37 -317.452
24 37 -22.6492
25 37 -20.9513
26 37 -19.6415
27 37 -18.3835
28 37 -17.3587
29 37 -16.4793
30 37 -15.7224
31 37 -15.0755
32 37 -14.5126
33 37 -14.0096
34 37 -13.5872
35 37 -13.2146
36 37 -12.882
37 37 -12.6089
38 37 -12.3576
39 37 -12.1452
40 37 -11.984
41 37 -11.9137
42 37 -11.8965
43 37 -11.9293
44 37 -12.0289
45 37 -12.1598
46 37 -12.3436
47 37 -12.5502
48 37 -12.8243
49 37 -13.1451
50 37 -13.4919
51 37 -13.877
52 37 -14.3055
53 37 -14.7673
54 37 -15.2694
55 37 -15.8185
56 37 -16.4099
57 37 -17.0155
58 37 -17.608
59 37 -18.056
60 37 -18.4557
61 37 -18.7976
62 37 -19.1243
63 37 -19.4584
64 37 -19.7524
65 37 -20.0666
66 37 -20.0669
67 37 -19.7505
68 37 -19.1483
69 37 -18.5376
70 37 -17.9293
71 37 -17.3923
72 37 -16.7921
73 37 -16.1904
74 37 -15.6218
75 37 -15.0967
76 37 -14.6253
77 37 -14.2207
78 37 -13.8847
79 37 -13.6079
80 37 -13.4164
81 37 -13.2894
82 37 -13.2536
83 37 -13.2765
84 37 -13.3622
85 37 -13.5024
86 37 -13.6844
87 37 -13.9406
88 37 -14.2655
89 37 -14.6073
90 37 -14.9847
91 37 -15.4108
92 37 -15.8759
93 37 -16.4713
94 37 -17.1862
95 37 -18.0307
96 37 -18.9744
97 37 -19.9557
98 37 -20.8673
99 37 -28.3594
100 37 -317.452
101 37 -317.452
102 37 -317.452
103 37 -317.452
104 37 -317.452
105 37 -317.452
106 37 -317.452
107 37 -317.452
108 37 -317.452
109 37 -317.452
110 37 -317.452
111 37 -317.452
112 37 -317.452
113 37 -317.452
114 37 -317.452
115 37 -317.452
116 37 -317.452
117 37 -317.452
118 37 -317.452
119 37 -317.452
0 38 -317.452
1 38 -317.452
2 38 -317.452
3 38 -317.452
4 38 -317.452
5 38 -317.452
6 38 -317.452
7 38 -317.452
8 38 -317.452
9 38 -317.452
10 38 -317.452
11 38 -317.452
12 38 -317.452
13 38 -317.452
14 38 -317.452
15 38 -317.452
16 38 -317.452
17 38 -317.452
18 38 -317.452
19 38 -317.452
20 38 -317.452
21 38 -317.452
22 38 -317.452
23 38 -317.452
24 38 -22.8619
25 38 -21.1027
26 38 -19.7668
27 38 -18.5256
28 38 -17.4753
29 38 -16.5994
30 38 -15.8341
31 38 -15.1908
32 38 -14.6136
33 38 -14.1133
34 38 -13.6955
35 38 -13.3135
36 38 -12.9626
37 38 -12.6696
38 38 -12.405
39 38 -12.1811
40 38 -12.0102
41 38 -11.9356
42 38 -11.9205
43 38 -11.9574
44 38 -12.0691
45 38 -12.204
46 38 -12.3983
47 38 -12.6232
48 38 -12.9022
49 38 -13.2281
50 38 -13.5708
51 38 -13.9585
52 38 -14.3991
53 38 -14.8623
54 38 -15.3927
55 38 -15.9426
56 38 -16.5087
57 38 -17.1054
58 38 -17.6168
59 38 -18.0029
60 38 -18.306
61 38 -18.5325
62 38 -18.7292
63 38 -18.9534
64 38 -19.1516
65 38 -19.3698
66 38 -19.2847
67 38 -18.9041
68 38 -18.4637
69 38 -18.0362
70 38 -17.6111
71 38 -17.2503
72 38 -16.8259
73 38 -16.3885
74 38 -15.944
75 38 -15.4706
76 38 -14.9892
77 38 -14.5672
78 38 -14.2179
79 38 -13.9379
80 38 -13.7291
81 38 -13.5771
82 38 -13.5261
83 38 -13.5454
84 38 -13.6196
85 38 -13.7556
86 38 -13.9375
87 38 -14.1807
88 38 -14.4842
89 38 -14.841
90 38 -15.2015
91 38 -15.6125
92 38 -16.092
93 38 -16.674
94 38 -17.3819
95 38 -18.2165
96 38 -19.1472
97 38 -20.1246
98 38 -21.2345
99 38 -30.1838
100 38 -317.452
101 38 -317.452
102 38 -317.452
103 38 -317.452
104 38 -317.452
105 38 -317.452
106 38 -317.452
107 38 -317.452
108 38 -317.452
109 38 -317.452
110 38 -317.452
111 38 -317.452
112 38 -317.452
113 38 -317.452
114 38 -317.452
115 38 -317.452
116 38 -317.452
117 38 -317.452
118 38 -317.452
119 38 -317.452
0 39 -317.452
1 39 -317.452
2 39 -317.452
3 39 -317.452
4 39 -317.452
5 39 -317.452
6 39 -317.452
7 39 -317.452
8 39 -317.452
9 39 -317.452
10 39 -317.452
11 39 -317.452
12 39 -317.452
13 39 -317.452
14 39 -317.452
15 39 -317.452
16 39 -317.452
17 39 -317.452
18 39 -317.452
19 39 -317.452
20 39 -317.452
21 39 -317.452
22 39 -317.452
23 39 -317.452
24 39 -23.112
25 39 -21.3457
26 39 -19.8865
27 39 -18.6317
28 39 -17.5971
29 39 -16.7161
30 39 -15.9563
31 39 -15.3104
32 39 -14.7363
33 39 -14.2459
34 39 -13.7963
35 39 -13.3901
36 39 -13.034
37 39 -12.7171
38 39 -12.4339
39 39 -12.1982
40 39 -12.023
41 39 -11.9523
42 39 -11.9335
43 39 -11.9861
44 39 -12.0981
45 39 -12.2532
46 39 -12.4513
47 39 -12.678
48 39 -12.9709
49 39 -13.2862
50 39 -13.6335
51 39 -14.0314
52 39 -14.4738
53 39 -14.955
54 39 -15.4643
55 39 -15.9759
56 39 -16.5143
57 39 -17.0363
58 39 -17.4662
59 39 -17.7809
60 39 -17.9605
61 39 -18.0892
62 39 -18.1567
63 39 -18.2514
64 39 -18.3639
65 39 -18.4623
66 39 -18.2468
67 39 -17.9386
68 39 -17.6827
69 39 -17.4181
70 39 -17.1732
71 39 -16.9881
72 39 -16.7321
73 39 -16.4675
74 39 -16.1584
75 39 -15.79
76 39 -15.3678
77 39 -14.9376
78 39 -14.5695
79 39 -14.26
80 39 -14.0425
81 39 -13.8913
82 39 -13.8179
83 39 -13.8031
84 39 -13.8817
85 39 -14.0021
86 39 -14.167
87 39 -14.3995
88 39 -14.7007
89 39 -15.0376
90 39 -15.4302
91 39 -15.8456
92 39 -16.3244
93 39 -16.926
94 39 -17.6208
95 39 -18.4647
96 39 -19.4595
97 39 -20.575
98 39 -21.9384
99 39 -31.6161
100 39 -317.452
101 39 -317.452
102 39 -317.452
103 39 -317.452
104 39 -317.452
105 39 -317.452
106 39 -317.452
107 39 -317.452
108 39 -317.452
109 39 -317.452
110 39 -317.452
111 39 -317.452
112 39 -317.452
113 39 -317.452
114 39 -317.452
115 39 -317.452
116 39 -317.452
117 39 -317.452
118 39 -317.452
119 39 -317.452
0 40 -317.452
1 40 -317.452
2 40 -317.452
3 40 -317.452
4 40 -317.452
5 40 -317.452
6 40 -317.452
7 40 -317.452
8 40 -317.452
9 40 -317.452
10 40 -317.452
11 40 -317.452
12 40 -317.452
13 40 -317.452
14 40 -317.452
15 40 -317.452
16 40 -317.452
17 40 -317.452
18 40 -317.452
19 40 -317.452
20 40 -317.452
21 40 -317.452
22 40 -317.452
23 40 -317.452
24 40 -23.4087
25 40 -21.5408
26 40 -20.0174
27 40 -18.7331
28 40 -17.7057
29 40 -16.8406
30 40 -16.0988
31 40 -15.4568
32 40 -14.8641
33 40 -14.3336
34 40 -13.8735
35 40 -13.4585
36 40 -13.0905
37 40 -12.7495
38 40 -12.4672
39 40 -12.2167
40 40 -12.0471
41 40 -11.9717
42 40 -11.9622
43 40 -12.0123
44 40 -12.1213
45 40 -12.3021
46 40 -12.5144
47 40 -12.7484
48 40 -13.0378
49 40 -13.3571
50 40 -13.7111
51 40 -14.1034
52 40 -14.5368
53 40 -14.9968
54 40 -15.4521
55 40 -15.9399
56 40 -16.4045
57 40 -16.8302
58 40 -17.111
59 40 -17.331
60 40 -17.4115
61 40 -17.4261
62 40 -17.4078
63 40 -17.3673
64 40 -17.3435
65 40 -17.3258
66 40 -17.1247
67 40 -16.9689
68 40 -16.8386
69 40 -16.7339
70 40 -16.6519
71 40 -16.6282
72 40 -16.5558
73 40 -16.4156
74 40 -16.2293
75 40 -15.9676
76 40 -15.666
77 40 -15.3046
78 40 -14.9321
79 40 -14.6115
80 40 -14.3633
81 40 -14.1979
82 40 -14.1038
83 40 -14.0907
84 40 -14.1319
85 40 -14.2312
86 40 -14.4122
87 40 -14.6351
88 40 -14.9161
89 40 -15.2614
90 40 -15.6515
91 40 -16.0779
92 40 -16.5762
93 40 -17.1892
94 40 -17.9005
95 40 -18.7899
96 40 -19.88
97 40 -21.2556
98 40 -23.3581
99 40 -33.1843
100 40 -317.452
101 40 -317.452
102 40 -317.452
103 40 -317.452
104 40 -317.452
105 40 -317.452
106 40 -317.452
107 40 -317.452
108 40 -317.452
109 40 -317.452
110 40 -317.452
111 40 -317.452
112 40 -317.452
113 40 -317.452
114 40 -317.452
115 40 -317.452
116 40 -317.452
117 40 -317.452
118 40 -317.452
119 40 -317.452
0 41 -317.452
1 41 -317.452
2 41 -317.452
3 41 -317.452
4 41 -317.452
5 41 -317.452
6 41 -317.452
7 41 -317.452
8 41 -317.452
9 41 -317.452
10 41 -317.452
11 41 -317.452
12 41 -317.452
13 41 -317.452
14 41 -317.452
15 41 -317.452
16 41 -317.452
17 41 -317.452
18 41 -317.452
19 41 -317.452
20 41 -317.452
21 41 -317.452
22 41 -317.452
23 41 -25.9161
24 41 -24.0694
25 41 -21.8607
26 41 -20.1855
27 41 -18.8411
28 41 -17.7856
29 41 -16.9305
30 41 -16.2212
31 41 -15.5509
32 41 -14.949
33 41 -14.409
34 41 -13.916
35 41 -13.4788
36 41 -13.0933
37 41 -12.769
38 41 -12.4844
39 41 -12.236
40 41 -12.0551
41 41 -11.9838
42 41 -11.9795
43 41 -12.0301
44 41 -12.1581
45 41 -12.3402
46 41 -12.5491
47 41 -12.7962
48 41 -13.09
49 41 -13.4124
50 41 -13.7863
51 41 -14.172
52 41 -14.5647
53 41 -14.9598
54 41 -15.346
55 41 -15.7716
56 41 -16.16
57 41 -16.4531
58 41 -16.6095
59 41 -16.6353
60 41 -16.5687
61 41 -16.4576
62 41 -16.3532
63 41 -16.2352
64 41 -16.0864
65 41 -16.0042
66 41 -15.946
67 41 -15.9116
68 41 -15.9292
69 41 -15.9757
70 41 -16.0423
71 41 -16.1659
72 41 -16.2289
73 41 -16.2308
74 41 -16.1508
75 41 -16.0143
76 41 -15.8324
77 41 -15.5861
78 41 -15.2885
79 41 -14.9716
80 41 -14.709
81 41 -14.5216
82 41 -14.3998
83 41 -14.3633
84 41 -14.3992
85 41 -14.4938
86 41 -14.6552
87 41 -14.8705
88 41 -15.1549
89 41 -15.5024
90 41 -15.8895
91 41 -16.3107
92 41 -16.8131
93 41 -17.435
94 41 -18.1842
95 41 -19.1119
96 41 -20.2689
97 41 -21.6952
98 41 -23.7551
99 41 -33.5119
100 41 -317.452
101 41 -317.452
102 41 -317.452
103 41 -317.452
104 41 -317.452
105 41 -317.452
106 41 -317.452
107 41 -317.452
108 41 -317.452
109 41 -317.452
110 41 -317.452
111 41 -317.452
112 41 -317.452
113 41 -317.452
114 41 -317.452
115 41 -317.452
116 41 -317.452
117 41 -317.452
118 41 -317.452
119 41 -317.452
0 42 -317.452
1 42 -317.452
2 42 -317.452
3 42 -317.452
4 42 -317.452
5 42 -317.452
6 42 -317.452
7 42 -317.452
8 42 -317.452
9 42 -317.452
10 42 -317.452
11 42 -317.452
12 42 -317.452
13 42 -317.452
14 42 -317.452
15 42 -317.452
16 42 -317.452
17 42 -317.452
18 42 -317.452
19 42 -317.452
20 42 -317.452
21 42 -317.452
22 42 -317.452
23 42 -26.1361
24 42 -24.3198
25 42 -22.0615
26 42 -20.3236
27 42 -18.9445
28 42 -17.886
29 42 -17.0246
30 42 -16.3052
31 42 -15.6232
32 42 -14.9964
33 42 -14.4334
34 42 -13.9412
35 42 -13.4915
36 42 -13.1061
37 42 -12.7706
38 42 -12.4938
39 42 -12.2417
40 42 -12.0625
41 42 -12.0081
42 42 -12.0044
43 42 -12.0691
44 42 -12.1867
45 42 -12.3704
46 42 -12.5957
47 42 -12.8513
48 42 -13.1439
49 42 -13.4668
50 42 -13.8223
51 42 -14.1547
52 42 -14.4874
53 42 -14.7965
54 42 -15.1201
55 42 -15.4856
56 42 -15.7111
57 42 -15.8022
58 42 -15.7816
59 42 -15.5974
60 42 -15.2971
61 42 -15.064
62 42 -14.8709
63 42 -14.759
64 42 -14.6429
65 42 -14.6135
66 42 -14.6418
67 42 -14.7306
68 42 -14.8785
69 42 -15.0777
70 42 -15.3152
71 42 -15.5893
72 42 -15.78
73 42 -15.8962
74 42 -15.9375
75 42 -15.9412
76 42 -15.8703
77 42 -15.7512
78 42 -15.5721
79 42 -15.3307
80 42 -15.0644
81 42 -14.8425
82 42 -14.6929
83 42 -14.6519
84 42 -14.6709
85 42 -14.7439
86 42 -14.8912
87 42 -15.112
88 42 -15.3888
89 42 -15.7287
90 42 -16.1224
91 42 -16.5662
92 42 -17.0618
93 42 -17.7116
94 42 -18.4761
95 42 -19.439
96 42 -20.5986
97 42 -22.0376
98 42 -24.166
99 42 -33.1891
100 42 -317.452
101 42 -317.452
102 42 -317.452
103 42 -317.452
104 42 -317.452
105 42 -317.452
106 42 -317.452
107 42 -317.452
108 42 -317.452
109 42 -317.452
110 42 -317.452
111 42 -317.452
112 42 -317.452
113 42 -317.452
114 42 -317.452
115 42 -317.452
116 42 -317.452
117 42 -317.452
118 42 -317.452
119 42 -317.452
0 43 -317.452
1 43 -317.452
2 43 -317.452
3 43 -317.452
4 43 -317.452
5 43 -317.452
6 43 -317.452
7 43 -317.452
8 43 -317.452
9 43 -317.452
10 43 -317.452
11 43 -317.452
12 43 -317.452
13 43 -317.452
14 43 -317.452
15 43 -317.452
16 43 -317.452
17 43 -317.452
18 43 -317.452
19 43 -317.452
20 43 -317.452
21 43 -317.452
22 43 -317.452
23 43 -26.3191
24 43 -24.2532
25 43 -22.1195
26 43 -20.3987
27 43 -19.0079
28 43 -17.9492
29 43 -17.078
30 43 -16.3349
31 43 -15.6397
32 43 -15.0186
33 43 -14.4473
34 43 -13.9367
35 43 -13.4868
36 43 -13.0942
37 43 -12.756
38 43 -12.4776
39 43 -12.2353
40 43 -12.0716
41 43 -12.0107
42 43 -12.0178
43 43 -12.0854
44 43 -12.2149
45 43 -12.4008
46 43 -12.6413
47 43 -12.9057
48 43 -13.2029
49 43 -13.5124
50 43 -13.7757
51 43 -14.0629
52 43 -14.3059
53 43 -14.5648
54 43 -14.8136
55 43 -15.0084
56 43 -15.0409
57 43 -14.9201
58 43 -14.5875
59 43 -14.0699
60 43 -13.4832
61 43 -13.1355
62 43 -13.0186
63 43 -13.0691
64 43 -13.1385
65 43 -13.2385
66 43 -13.3751
67 43 -13.5403
68 43 -13.7781
69 43 -14.0921
70 43 -14.4712
71 43 -14.8662
72 43 -15.1998
73 43 -15.4495
74 43 -15.6195
75 43 -15.7379
76 43 -15.7779
77 43 -15.7666
78 43 -15.7053
79 43 -15.5723
80 43 -15.3973
81 43 -15.1805
82 43 -14.994
83 43 -14.9165
84 43 -14.9178
85 43 -14.9967
86 43 -15.1213
87 43 -15.3321
88 43 -15.6172
89 43 -15.9519
90 43 -16.3643
91 43 -16.7966
92 43 -17.3081
93 43 -17.9732
94 43 -18.7665
95 43 -19.7238
96 43 -20.8474
97 43 -22.1807
98 43 -25.3222
99 43 -317.452
100 43 -317.452
101 43 -317.452
102 43 -317.452
103 43 -317.452
104 43 -317.452
105 43 -317.452
106 43 -317.452
107 43 -317.452
108 43 -317.452
109 43 -317.452
110 43 -317.452
111 43 -317.452
112 43 -317.452
113 43 -317.452
114 43 -317.452
115 43 -317.452
116 43 -317.452
117 43 -317.452
118 43 -317.452
119 43 -317.452
0 44 -317.452
1 44 -317.452
2 44 -317.452
3 44 -317.452
4 44 -317.452
5 44 -317.452
6 44 -317.452
7 44 -317.452
8 44 -317.452
9 44 -317.452
10 44 -317.452
11 44 -317.452
12 44 -317.452
13 44 -317.452
14 44 -317.452
15 44 -317.452
16 44 -317.452
17 44 -317.452
18 44 -317.452
19 44 -317.452
20 44 -317.452
21 44 -317.452
22 44 -317.452
23 44 -26.7999
24 44 -24.4149
25 44 -22.2074
26 44 -20.4714
27 44 -19.0575
28 44 -17.9848
29 44 -17.0957
30 44 -16.3498
31 44 -15.6181
32 44 -14.9786
33 44 -14.4078
34 44 -13.8912
35 44 -13.434
36 44 -13.0491
37 44 -12.7199
38 44 -12.4409
39 44 -12.2311
40 44 -12.0904
41 44 -12.0506
42 44 -12.0562
43 44 -12.1244
44 44 -12.2525
45 44 -12.4377
46 44 -12.6878
47 44 -12.9533
48 44 -13.2259
49 44 -13.4574
50 44 -13.6653
51 44 -13.8649
52 44 -14.0508
53 44 -14.2279
54 44 -14.3759
55 44 -14.3783
56 44 -14.1871
57 44 -13.7743
58 44 -12.8993
59 44 -11.8489
60 44 -11.5437
61 44 -11.4509
62 44 -11.4376
63 44 -11.4278
64 44 -11.5741
65 44 -11.7969
66 44 -12.0915
67 44 -12.3833
68 44 -12.7166
69 44 -13.1225
70 44 -13.5381
71 44 -13.9965
72 44 -14.4533
73 44 -14.8542
74 44 -15.1541
75 44 -15.3961
76 44 -15.5663
77 44 -15.6525
78 44 -15.6924
79 44 -15.6508
80 44 -15.6037
81 44 -15.4662
82 44 -15.3064
83 44 -15.1851
84 44 -15.1512
85 44 -15.2165
86 44 -15.3419
87 44 -15.5568
88 44 -15.8203
89 44 -16.1652
90 44 -16.5651
91 44 -17.0258
92 44 -17.5477
93 44 -18.2349
94 44 -19.0547
95 44 -20.0549
96 44 -21.2608
97 44 -22.7606
98 44 -26.4813
99 44 -317.452
100 44 -317.452
101 44 -317.452
102 44 -317.452
103 44 -317.452
104 44 -317.452
105 44 -317.452
106 44 -317.452
107 44 -317.452
108 44 -317.452
109 44 -317.452
110 44 -317.452
111 44 -317.452
112 44 -317.452
113 44 -317.452
114 44 -317.452
115 44 -317.452
116 44 -317.452
117 44 -317.452
118 44 -317.452
119 44 -317.452
0 45 -317.452
1 45 -317.452
2 45 -317.452
3 45 -317.452
4 45 -317.452
5 45 -317.452
6 45 -317.452
7 45 -317.452
8 45 -317.452
9 45 -317.452
10 45 -317.452
11 45 -317.452
12 45 -317.452
13 45 -317.452
14 45 -317.452
15 45 -317.452
16 45 -317.452
17 45 -317.452
18 45 -317.452
19 45 -317.452
20 45 -317.452
21 45 -317.452
22 45 -317.452
23 45 -27.3788
24 45 -24.6226
25 45 -22.2839
26 45 -20.5061
27 45 -19.0691
28 45 -17.943
29 45 -17.0518
30 45 -16.3009
31 45 -15.5654
32 45 -14.9289
33 45 -14.3262
34 45 -13.827
35 45 -13.3732
36 45 -12.9799
37 45 -12.6413
38 45 -12.4005
39 45 -12.2354
40 45 -12.1213
41 45 -12.0976
42 45 -12.1228
43 45 -12.2073
44 45 -12.343
45 45 -12.532
46 45 -12.7665
47 45 -12.9707
48 45 -13.1614
49 45 -13.3371
50 45 -13.4739
51 45 -13.6214
52 45 -13.7326
53 45 -13.8285
54 45 -13.8087
55 45 -13.6285
56 45 -13.1874
57 45 -12.3758
58 45 -11.1272
59 45 -10.7596
60 45 -10.5389
61 45 -10.3995
62 45 -10.3505
63 45 -10.3776
64 45 -10.546
65 45 -10.7977
66 45 -11.0993
67 45 -11.4387
68 45 -11.8145
69 45 -12.1951
70 45 -12.614
71 45 -13.075
72 45 -13.5911
73 45 -14.1101
74 45 -14.5647
75 45 -14.9193
76 45 -15.2112
77 45 -15.4194
78 45 -15.5725
79 45 -15.6349
80 45 -15.6657
81 45 -15.6529
82 45 -15.5688
83 45 -15.4705
84 45 -15.3883
85 45 -15.4329
86 45 -15.5672
87 45 -15.7514
88 45 -16.0339
89 45 -16.3811
90 45 -16.7786
91 45 -17.2415
92 45 -17.7855
93 45 -18.4993
94 45 -19.3524
95 45 -20.4121
96 45 -21.7109
97 45 -23.3386
98 45 -27.3023
99 45 -317.452
100 45 -317.452
101 45 -317.452
102 45 -317.452
103 45 -317.452
104 45 -317.452
105 45 -317.452
106 45 -317.452
107 45 -317.452
108 45 -317.452
109 45 -317.452
110 45 -317.452
111 45 -317.452
112 45 -317.452
113 45 -317.452
114 45 -317.452
115 45 -317.452
116 45 -317.452
117 45 -317.452
118 45 -317.452
119 45 -317.452
0 46 -317.452
1 46 -317.452
2 46 -317.452
3 46 -317.452
4 46 -317.452
5 46 -317.452
6 46 -317.452
7 46 -317.452
8 46 -317.452
9 46 -317.452
10 46 -317.452
11 46 -317.452
12 46 -317.452
13 46 -317.452
14 46 -317.452
15 46 -317.452
16 46 -317.452
17 46 -317.452
18 46 -317.452
19 46 -317.452
20 46 -317.452
21 46 -317.452
22 46 -317.452
23 46 -28.3614
24 46 -24.9096
25 46 -22.3788
26 46 -20.477
27 46 -18.9864
28 46 -17.8503
29 46 -16.9622
30 46 -16.1937
31 46 -15.4689
32 46 -14.8273
33 46 -14.2403
34 46 -13.7276
35 46 -13.2546
36 46 -12.8583
37 46 -12.5475
38 46 -12.3474
39 46 -12.2142
40 46 -12.1259
41 46 -12.12
42 46 -12.1665
43 46 -12.2643
44 46 -12.4167
45 46 -12.6151
46 46 -12.7777
47 46 -12.9221
48 46 -13.0435
49 46 -13.1346
50 46 -13.2233
51 46 -13.2796
52 46 -13.3379
53 46 -13.3262
54 46 -13.131
55 46 -12.7158
56 46 -11.9428
57 46 -10.6717
58 46 -10.2056
59 46 -9.97729
60 46 -9.7989
61 46 -9.72366
62 46 -9.72131
63 46 -9.8114
64 46 -9.99264
65 46 -10.2482
66 46 -10.5424
67 46 -10.8571
68 46 -11.1805
69 46 -11.5215
70 46 -11.8862
71 46 -12.277
72 46 -12.7311
73 46 -13.2558
74 46 -13.8144
75 46 -14.3066
76 46 -14.718
77 46 -15.0424
78 46 -15.3026
79 46 -15.4886
80 46 -15.6094
81 46 -15.6746
82 46 -15.6972
83 46 -15.6451
84 46 -15.5856
85 46 -15.6231
86 46 -15.7432
87 46 -15.9395
88 46 -16.218
89 46 -16.5644
90 46 -16.9863
91 46 -17.4541
92 46 -18.0109
93 46 -18.7324
94 46 -19.6367
95 46 -20.7694
96 46 -22.1741
97 46 -23.9176
98 46 -28.0949
99 46 -317.452
100 46 -317.452
101 46 -317.452
102 46 -317.452
103 46 -317.452
104 46 -317.452
105 46 -317.452
106 46 -317.452
107 46 -317.452
108 46 -317.452
109 46 -317.452
110 46 -317.452
111 46 -317.452
112 46 -317.452
113 46 -317.452
114 46 -317.452
115 46 -317.452
116 46 -317.452
117 46 -317.452
118 46 -317.452
119 46 -317.452
0 47 -317.452
1 47 -317.452
2 47 -317.452
3 47 -317.452
4 47 -317.452
5 47 -317.452
6 47 -317.452
7 47 -317.452
8 47 -317.452
9 47 -317.452
10 47 -317.452
11 47 -317.452
12 47 -317.452
13 47 -317.452
14 47 -317.452
15 47 -317.452
16 47 -317.452
17 47 -317.452
18 47 -317.452
19 47 -317.452
20 47 -317.452
21 47 -317.452
22 47 -28.7398
23 47 -30.1448
24 47 -25.1794
25 47 -22.353
26 47 -20.3188
27 47 -18.8175
28 47 -17.6792
29 47 -16.8019
30 47 -16.0261
31 47 -15.3134
32 47 -14.6659
33 47 -14.0758
34 47 -13.5662
35 47 -13.1037
36 47 -12.7339
37 47 -12.4834
38 47 -12.293
39 47 -12.1829
40 47 -12.1167
41 47 -12.1239
42 47 -12.1777
43 47 -12.2938
44 47 -12.4528
45 47 -12.6054
46 47 -12.6935
47 47 -12.7731
48 47 -12.8388
49 47 -12.8819
50 47 -12.8857
51 47 -12.8714
52 47 -12.8439
53 47 -12.6778
54 47 -12.2807
55 47 -11.6503
56 47 -10.3956
57 47 -9.77012
58 47 -9.52152
59 47 -9.35954
60 47 -9.23446
61 47 -9.28814
62 47 -9.38963
63 47 -9.5308
64 47 -9.69948
65 47 -9.93435
66 47 -10.2129
67 47 -10.5012
68 47 -10.8136
69 47 -11.143
70 47 -11.4583
71 47 -11.7976
72 47 -12.1776
73 47 -12.6151
74 47 -13.0926
75 47 -13.6329
76 47 -14.1679
77 47 -14.6177
78 47 -14.9758
79 47 -15.263
80 47 -15.4755
81 47 -15.6081
82 47 -15.6851
83 47 -15.7175
84 47 -15.7325
85 47 -15.7833
86 47 -15.9019
87 47 -16.0986
88 47 -16.3689
89 47 -16.7209
90 47 -17.1415
91 47 -17.6372
92 47 -18.2062
93 47 -18.9718
94 47 -19.9145
95 47 -21.118
96 47 -22.6571
97 47 -24.8509
98 47 -28.4247
99 47 -35.0211
100 47 -317.452
101 47 -317.452
102 47 -317.452
103 47 -317.452
104 47 -317.452
105 47 -317.452
106 47 -317.452
107 47 -317.452
108 47 -317.452
109 47 -317.452
110 47 -317.452
111 47 -317.452
112 47 -317.452
113 47 -317.452
114 47 -317.452
115 47 -317.452
116 47 -317.452
117 47 -317.452
118 47 -317.452
119 47 -317.452
0 48 -317.452
1 48 -317.452
2 48 -317.452
3 48 -317.452
4 48 -317.452
5 48 -317.452
6 48 -317.452
7 48 -317.452
8 48 -317.452
9 48 -317.452
10 48 -317.452
11 48 -317.452
12 48 -317.452
13 48 -317.452
14 48 -317.452
15 48 -317.452
16 48 -317.452
17 48 -317.452
18 48 -317.452
19 48 -317.452
20 48 -317.452
21 48 -317.452
22 48 -25.4746
23 48 -28.6671
24 48 -24.5493
25 48 -21.9376
26 48 -20.0061
27 48 -18.5413
28 48 -17.4374
29 48 -16.5651
30 48 -15.8116
31 48 -15.1101
32 48 -14.4666
33 48 -13.8708
34 48 -13.3496
35 48 -12.9366
36 48 -12.6013
37 48 -12.3609
38 48 -12.2146
39 48 -12.1225
40 48 -12.0754
41 48 -12.1156
42 48 -12.1744
43 48 -12.3231
44 48 -12.4412
45 48 -12.4933
46 48 -12.5254
47 48 -12.5418
48 48 -12.5531
49 48 -12.5399
50 48 -12.4764
51 48 -12.3845
52 48 -12.2253
53 48 -11.8964
54 48 -11.298
55 48 -10.2727
56 48 -9.42073
57 48 -9.06594
58 48 -8.85544
59 48 -8.77547
60 48 -8.7789
61 48 -8.91926
62 48 -9.03759
63 48 -9.19613
64 48 -9.38286
65 48 -9.62212
66 48 -9.90357
67 48 -10.1781
68 48 -10.4877
69 48 -10.8087
70 48 -11.152
71 48 -11.4881
72 48 -11.8523
73 48 -12.2411
74 48 -12.6051
75 48 -13.0434
76 48 -13.5789
77 48 -14.12
78 48 -14.5767
79 48 -14.947
80 48 -15.2446
81 48 -15.4585
82 48 -15.6045
83 48 -15.6948
84 48 -15.777
85 48 -15.8913
86 48 -16.0336
87 48 -16.2303
88 48 -16.516
89 48 -16.8528
90 48 -17.2978
91 48 -17.7699
92 48 -18.3705
93 48 -19.1585
94 48 -20.139
95 48 -21.3721
96 48 -22.9511
97 48 -25.0783
98 48 -29.6492
99 48 -317.452
100 48 -317.452
101 48 -317.452
102 48 -317.452
103 48 -317.452
104 48 -317.452
105 48 -317.452
106 48 -317.452
107 48 -317.452
108 48 -317.452
109 48 -317.452
110 48 -317.452
111 48 -317.452
112 48 -317.452
113 48 -317.452
114 48 -317.452
115 48 -317.452
116 48 -317.452
117 48 -317.452
118 48 -317.452
119 48 -317.452
0 49 -317.452
1 49 -317.452
2 49 -317.452
3 49 -317.452
4 49 -317.452
5 49 -317.452
6 49 -317.452
7 49 -317.452
8 49 -317.452
9 49 -317.452
10 49 -317.452
11 49 -317.452
12 49 -317.452
13 49 -317.452
14 49 -317.452
15 49 -317.452
16 49 -317.452
17 49 -317.452
18 49 -317.452
19 49 -317.452
20 49 -317.452
21 49 -317.452
22 49 -24.079
23 49 -27.1445
24 49 -23.6292
25 49 -21.3237
26 49 -19.5631
27 49 -18.1783
28 49 -17.1464
29 49 -16.308
30 49 -15.5653
31 49 -14.8709
32 49 -14.2284
33 49 -13.6412
34 49 -13.1508
35 49 -12.7609
36 49 -12.4714
37 49 -12.2705
38 49 -12.1366
39 49 -12.0636
40 49 -12.0436
41 49 -12.0841
42 49 -12.1736
43 49 -12.281
44 49 -12.3229
45 49 -12.311
46 49 -12.2944
47 49 -12.2547
48 49 -12.2072
49 49 -12.1104
50 49 -12.0142
51 49 -11.7948
52 49 -11.4691
53 49 -11.0057
54 49 -10.147
55 49 -9.17535
56 49 -8.70241
57 49 -8.39549
58 49 -8.31135
59 49 -8.32166
60 49 -8.40805
61 49 -8.56018
62 49 -8.72359
63 49 -8.88296
64 49 -9.08106
65 49 -9.30414
66 49 -9.60045
67 49 -9.86539
68 49 -10.1627
69 49 -10.5022
70 49 -10.8441
71 49 -11.1993
72 49 -11.5822
73 49 -11.963
74 49 -12.3297
75 49 -12.7046
76 49 -13.1186
77 49 -13.6009
78 49 -14.1323
79 49 -14.5814
80 49 -14.9578
81 49 -15.2396
82 49 -15.4629
83 49 -15.6124
84 49 -15.7607
85 49 -15.9323
86 49 -16.1179
87 49 -16.3288
88 49 -16.6065
89 49 -16.9554
90 49 -17.4003
91 49 -17.9136
92 49 -18.5204
93 49 -19.3334
94 49 -20.3241
95 49 -21.5936
96 49 -23.2078
97 49 -25.4616
98 49 -30.4736
99 49 -317.452
100 49 -317.452
101 49 -317.452
102 49 -317.452
103 49 -317.452
104 49 -317.452
105 49 -317.452
106 49 -317.452
107 49 -317.452
108 49 -317.452
109 49 -317.452
110 49 -317.452
111 49 -317.452
112 49 -317.452
113 49 -317.452
114 49 -317.452
115 49 -317.452
116 49 -317.452
117 49 -317.452
118 49 -317.452
119 49 -317.452
0 50 -317.452
1 50 -317.452
2 50 -317.452
3 50 -317.452
4 50 -317.452
5 50 -317.452
6 50 -317.452
7 50 -317.452
8 50 -317.452
9 50 -317.452
10 50 -317.452
11 50 -317.452
12 50 -317.452
13 50 -317.452
14 50 -317.452
15 50 -317.452
16 50 -317.452
17 50 -317.452
18 50 -317.452
19 50 -317.452
20 50 -317.452
21 50 -317.452
22 50 -23.0901
23 50 -25.6061
24 50 -22.6662
25 50 -20.6425
26 50 -19.0622
27 50 -17.7866
28 50 -16.8308
29 50 -16.0252
30 50 -15.3195
31 50 -14.6248
32 50 -13.9776
33 50 -13.4121
34 50 -12.9637
35 50 -12.6212
36 50 -12.3503
37 50 -12.1652
38 50 -12.0564
39 50 -12.0039
40 50 -11.9852
41 50 -12.0473
42 50 -12.1145
43 50 -12.1466
44 50 -12.1176
45 50 -12.0278
46 50 -11.9435
47 50 -11.8523
48 50 -11.7554
49 50 -11.6182
50 50 -11.4136
51 50 -11.0558
52 50 -10.5717
53 50 -9.93488
54 50 -8.99197
55 50 -8.37212
56 50 -8.04545
57 50 -7.87378
