ply
format ascii 1.0
comment Created by Open3D
element vertex 3072
property double x
property double y
property double z
end_header
99 109 -188.693
100 109 -188.693
101 109 -188.693
102 109 -188.693
103 109 -188.693
104 109 -188.693
105 109 -188.693
106 109 -188.693
107 109 -188.693
108 109 -188.693
109 109 -188.693
110 109 -188.693
111 109 -188.693
112 109 -188.693
113 109 -188.693
114 109 -188.693
115 109 -188.693
116 109 -188.693
117 109 -188.693
118 109 -188.693
119 109 -188.693
0 110 -188.693
1 110 -188.693
2 110 -188.693
3 110 -188.693
4 110 -188.693
5 110 -188.693
6 110 -188.693
7 110 -188.693
8 110 -188.693
9 110 -188.693
10 110 -188.693
11 110 -188.693
12 110 -188.693
13 110 -188.693
14 110 -188.693
15 110 -188.693
16 110 -188.693
17 110 -188.693
18 110 -188.693
19 110 -188.693
20 110 -188.693
21 110 -188.693
22 110 -188.693
23 110 -188.693
24 110 -188.693
25 110 -188.693
26 110 -188.693
27 110 -188.693
28 110 -188.693
29 110 -188.693
30 110 -188.693
31 110 -188.693
32 110 -188.693
33 110 -188.693
34 110 -188.693
35 110 -188.693
36 110 -188.693
37 110 -21.8615
38 110 -12.8973
39 110 -1.78485
40 110 2.09202
41 110 3.48007
42 110 4.49968
43 110 5.3846
44 110 6.07099
45 110 6.61606
46 110 7.05699
47 110 7.44214
48 110 7.66361
49 110 7.76715
50 110 7.81121
51 110 7.75994
52 110 7.64213
53 110 7.57691
54 110 7.4721
55 110 7.40649
56 110 7.33674
57 110 7.26369
58 110 7.16114
59 110 7.09404
60 110 7.01643
61 110 6.94359
62 110 6.86961
63 110 6.81047
64 110 6.75912
65 110 6.69074
66 110 6.65409
67 110 6.58056
68 110 6.51135
69 110 6.43081
70 110 6.34723
71 110 6.22573
72 110 6.10709
73 110 5.96456
74 110 5.78927
75 110 5.60721
76 110 5.39131
77 110 5.16665
78 110 4.8624
79 110 4.43212
80 110 3.89012
81 110 3.29867
82 110 2.65383
83 110 1.91716
84 110 1.13558
85 110 0.260962
86 110 -0.653586
87 110 -1.6343
88 110 -2.72067
89 110 -3.88302
90 110 -5.53084
91 110 -7.49908
92 110 -188.693
93 110 -188.693
94 110 -188.693
95 110 -188.693
96 110 -188.693
97 110 -188.693
98 110 -188.693
99 110 -188.693
100 110 -188.693
101 110 -188.693
102 110 -188.693
103 110 -188.693
104 110 -188.693
105 110 -188.693
106 110 -188.693
107 110 -188.693
108 110 -188.693
109 110 -188.693
110 110 -188.693
111 110 -188.693
112 110 -188.693
113 110 -188.693
114 110 -188.693
115 110 -188.693
116 110 -188.693
117 110 -188.693
118 110 -188.693
119 110 -188.693
0 111 -188.693
1 111 -188.693
2 111 -188.693
3 111 -188.693
4 111 -188.693
5 111 -188.693
6 111 -188.693
7 111 -188.693
8 111 -188.693
9 111 -188.693
10 111 -188.693
11 111 -188.693
12 111 -188.693
13 111 -188.693
14 111 -188.693
15 111 -188.693
16 111 -188.693
17 111 -188.693
18 111 -188.693
19 111 -188.693
20 111 -188.693
21 111 -188.693
22 111 -188.693
23 111 -188.693
24 111 -188.693
25 111 -188.693
26 111 -188.693
27 111 -188.693
28 111 -188.693
29 111 -188.693
30 111 -188.693
31 111 -188.693
32 111 -188.693
33 111 -188.693
34 111 -188.693
35 111 -188.693
36 111 -188.693
37 111 -19.7252
38 111 -11.6136
39 111 -1.30967
40 111 2.22792
41 111 3.72103
42 111 4.86904
43 111 5.76885
44 111 6.4606
45 111 7.00484
46 111 7.44113
47 111 7.80656
48 111 8.01154
49 111 8.13315
50 111 8.17591
51 111 8.10047
52 111 7.96225
53 111 7.87052
54 111 7.77242
55 111 7.69286
56 111 7.60142
57 111 7.4863
58 111 7.35795
59 111 7.29027
60 111 7.23203
61 111 7.16825
62 111 7.11072
63 111 7.05783
64 111 7.00959
65 111 6.95541
66 111 6.90693
67 111 6.83918
68 111 6.76981
69 111 6.68321
70 111 6.57742
71 111 6.46802
72 111 6.34112
73 111 6.18106
74 111 6.00649
75 111 5.82838
76 111 5.6351
77 111 5.44068
78 111 5.14524
79 111 4.7221
80 111 4.21329
81 111 3.65969
82 111 3.03204
83 111 2.33594
84 111 1.58331
85 111 0.745536
86 111 -0.121602
87 111 -1.05874
88 111 -2.10169
89 111 -3.23834
90 111 -4.75136
91 111 -6.71376
92 111 -188.693
93 111 -188.693
94 111 -188.693
95 111 -188.693
96 111 -188.693
97 111 -188.693
98 111 -188.693
99 111 -188.693
100 111 -188.693
101 111 -188.693
102 111 -188.693
103 111 -188.693
104 111 -188.693
105 111 -188.693
106 111 -188.693
107 111 -188.693
108 111 -188.693
109 111 -188.693
110 111 -188.693
111 111 -188.693
112 111 -188.693
113 111 -188.693
114 111 -188.693
115 111 -188.693
116 111 -188.693
117 111 -188.693
118 111 -188.693
119 111 -188.693
0 112 -188.693
1 112 -188.693
2 112 -188.693
3 112 -188.693
4 112 -188.693
5 112 -188.693
6 112 -188.693
7 112 -188.693
8 112 -188.693
9 112 -188.693
10 112 -188.693
11 112 -188.693
12 112 -188.693
13 112 -188.693
14 112 -188.693
15 112 -188.693
16 112 -188.693
17 112 -188.693
18 112 -188.693
19 112 -188.693
20 112 -188.693
21 112 -188.693
22 112 -188.693
23 112 -188.693
24 112 -188.693
25 112 -188.693
26 112 -188.693
27 112 -188.693
28 112 -188.693
29 112 -188.693
30 112 -188.693
31 112 -188.693
32 112 -188.693
33 112 -188.693
34 112 -188.693
35 112 -188.693
36 112 -188.693
37 112 -15.3258
38 112 -8.84462
39 112 -1.01035
40 112 2.24927
41 112 3.90283
42 112 5.13339
43 112 6.06305
44 112 6.77745
45 112 7.35072
46 112 7.76985
47 112 8.11832
48 112 8.38694
49 112 8.53617
50 112 8.56748
51 112 8.4838
52 112 8.33011
53 112 8.22418
54 112 8.12481
55 112 8.01915
56 112 7.89231
57 112 7.75689
58 112 7.62048
59 112 7.5083
60 112 7.39607
61 112 7.35733
62 112 7.30275
63 112 7.26139
64 112 7.21026
65 112 7.15706
66 112 7.10511
67 112 7.06748
68 112 6.99888
69 112 6.91002
70 112 6.80067
71 112 6.67409
72 112 6.54217
73 112 6.4008
74 112 6.23941
75 112 6.06055
76 112 5.8795
77 112 5.67747
78 112 5.40829
79 112 4.99671
80 112 4.49842
81 112 3.97553
82 112 3.38188
83 112 2.70873
84 112 1.9803
85 112 1.19954
86 112 0.342222
87 112 -0.571105
88 112 -1.57923
89 112 -2.69393
90 112 -4.104
91 112 -6.02567
92 112 -8.12838
93 112 -188.693
94 112 -188.693
95 112 -188.693
96 112 -188.693
97 112 -188.693
98 112 -188.693
99 112 -188.693
100 112 -188.693
101 112 -188.693
102 112 -188.693
103 112 -188.693
104 112 -188.693
105 112 -188.693
106 112 -188.693
107 112 -188.693
108 112 -188.693
109 112 -188.693
110 112 -188.693
111 112 -188.693
112 112 -188.693
113 112 -188.693
114 112 -188.693
115 112 -188.693
116 112 -188.693
117 112 -188.693
118 112 -188.693
119 112 -188.693
0 113 -188.693
1 113 -188.693
2 113 -188.693
3 113 -188.693
4 113 -188.693
5 113 -188.693
6 113 -188.693
7 113 -188.693
8 113 -188.693
9 113 -188.693
10 113 -188.693
11 113 -188.693
12 113 -188.693
13 113 -188.693
14 113 -188.693
15 113 -188.693
16 113 -188.693
17 113 -188.693
18 113 -188.693
19 113 -188.693
20 113 -188.693
21 113 -188.693
22 113 -188.693
23 113 -188.693
24 113 -188.693
25 113 -188.693
26 113 -188.693
27 113 -188.693
28 113 -188.693
29 113 -188.693
30 113 -188.693
31 113 -188.693
32 113 -188.693
33 113 -188.693
34 113 -188.693
35 113 -188.693
36 113 -188.693
37 113 -10.5675
38 113 -5.57677
39 113 -0.405134
40 113 2.4798
41 113 4.13209
42 113 5.39772
43 113 6.34545
44 113 7.07521
45 113 7.64004
46 113 8.0909
47 113 8.51017
48 113 8.81089
49 113 8.99819
50 113 9.02929
51 113 8.93041
52 113 8.77161
53 113 8.65298
54 113 8.53786
55 113 8.39707
56 113 8.24819
57 113 8.07439
58 113 7.9072
59 113 7.76963
60 113 7.64139
61 113 7.54146
62 113 7.47229
63 113 7.42516
64 113 7.37644
65 113 7.34213
66 113 7.29732
67 113 7.23993
68 113 7.18094
69 113 7.09367
70 113 6.98219
71 113 6.87398
72 113 6.7545
73 113 6.62184
74 113 6.45403
75 113 6.27524
76 113 6.09394
77 113 5.92004
78 113 5.65665
79 113 5.27909
80 113 4.78579
81 113 4.27994
82 113 3.69997
83 113 3.07516
84 113 2.36461
85 113 1.5757
86 113 0.748114
87 113 -0.181323
88 113 -1.16367
89 113 -2.23312
90 113 -3.61766
91 113 -5.36064
92 113 -7.49578
93 113 -188.693
94 113 -188.693
95 113 -188.693
96 113 -188.693
97 113 -188.693
98 113 -188.693
99 113 -188.693
100 113 -188.693
101 113 -188.693
102 113 -188.693
103 113 -188.693
104 113 -188.693
105 113 -188.693
106 113 -188.693
107 113 -188.693
108 113 -188.693
109 113 -188.693
110 113 -188.693
111 113 -188.693
112 113 -188.693
113 113 -188.693
114 113 -188.693
115 113 -188.693
116 113 -188.693
117 113 -188.693
118 113 -188.693
119 113 -188.693
0 114 -188.693
1 114 -188.693
2 114 -188.693
3 114 -188.693
4 114 -188.693
5 114 -188.693
6 114 -188.693
7 114 -188.693
8 114 -188.693
9 114 -188.693
10 114 -188.693
11 114 -188.693
12 114 -188.693
13 114 -188.693
14 114 -188.693
15 114 -188.693
16 114 -188.693
17 114 -188.693
18 114 -188.693
19 114 -188.693
20 114 -188.693
21 114 -188.693
22 114 -188.693
23 114 -188.693
24 114 -188.693
25 114 -188.693
26 114 -188.693
27 114 -188.693
28 114 -188.693
29 114 -188.693
30 114 -188.693
31 114 -188.693
32 114 -188.693
33 114 -188.693
34 114 -188.693
35 114 -188.693
36 114 -9.26515
37 114 -6.75216
38 114 -2.83361
39 114 0.583747
40 114 2.99068
41 114 4.53626
42 114 5.76234
43 114 6.72222
44 114 7.4868
45 114 8.11212
46 114 8.62655
47 114 9.05225
48 114 9.36076
49 114 9.54314
50 114 9.59278
51 114 9.44923
52 114 9.29291
53 114 9.14084
54 114 8.99171
55 114 8.80724
56 114 8.60011
57 114 8.39044
58 114 8.20163
59 114 8.02838
60 114 7.89604
61 114 7.7647
62 114 7.66554
63 114 7.61129
64 114 7.53567
65 114 7.48441
66 114 7.43608
67 114 7.40021
68 114 7.34288
69 114 7.26755
70 114 7.17118
71 114 7.06189
72 114 6.92585
73 114 6.80371
74 114 6.65787
75 114 6.49845
76 114 6.32315
77 114 6.1445
78 114 5.89264
79 114 5.52774
80 114 5.06342
81 114 4.55464
82 114 4.00675
83 114 3.39192
84 114 2.69082
85 114 1.95823
86 114 1.11283
87 114 0.207899
88 114 -0.786027
89 114 -1.82153
90 114 -3.10308
91 114 -4.67755
92 114 -6.80734
93 114 -188.693
94 114 -188.693
95 114 -188.693
96 114 -188.693
97 114 -188.693
98 114 -188.693
99 114 -188.693
100 114 -188.693
101 114 -188.693
102 114 -188.693
103 114 -188.693
104 114 -188.693
105 114 -188.693
106 114 -188.693
107 114 -188.693
108 114 -188.693
109 114 -188.693
110 114 -188.693
111 114 -188.693
112 114 -188.693
113 114 -188.693
114 114 -188.693
115 114 -188.693
116 114 -188.693
117 114 -188.693
118 114 -188.693
119 114 -188.693
0 115 -188.693
1 115 -188.693
2 115 -188.693
3 115 -188.693
4 115 -188.693
5 115 -188.693
6 115 -188.693
7 115 -188.693
8 115 -188.693
9 115 -188.693
10 115 -188.693
11 115 -188.693
12 115 -188.693
13 115 -188.693
14 115 -188.693
15 115 -188.693
16 115 -188.693
17 115 -188.693
18 115 -188.693
19 115 -188.693
20 115 -188.693
21 115 -188.693
22 115 -188.693
23 115 -188.693
24 115 -188.693
25 115 -188.693
26 115 -188.693
27 115 -188.693
28 115 -188.693
29 115 -188.693
30 115 -188.693
31 115 -188.693
32 115 -188.693
33 115 -188.693
34 115 -188.693
35 115 -188.693
36 115 -7.76985
37 115 -4.55598
38 115 -0.587067
39 115 1.73739
40 115 3.70493
41 115 5.18149
42 115 6.40522
43 115 7.39487
44 115 8.19277
45 115 8.81709
46 115 9.32839
47 115 9.71945
48 115 9.9893
49 115 10.1663
50 115 10.2032
51 115 10.0551
52 115 9.87357
53 115 9.68252
54 115 9.48433
55 115 9.2671
56 115 9.0099
57 115 8.77092
58 115 8.54013
59 115 8.34998
60 115 8.19006
61 115 8.03591
62 115 7.90998
63 115 7.79971
64 115 7.72338
65 115 7.66392
66 115 7.6036
67 115 7.54267
68 115 7.49653
69 115 7.42713
70 115 7.34314
71 115 7.24452
72 115 7.13625
73 115 7.0129
74 115 6.86072
75 115 6.70273
76 115 6.52876
77 115 6.35134
78 115 6.11286
79 115 5.76165
80 115 5.30683
81 115 4.8426
82 115 4.29171
83 115 3.70101
84 115 3.04428
85 115 2.30745
86 115 1.50398
87 115 0.578775
88 115 -0.447699
89 115 -1.45363
90 115 -2.69794
91 115 -4.15594
92 115 -6.20952
93 115 -188.693
94 115 -188.693
95 115 -188.693
96 115 -188.693
97 115 -188.693
98 115 -188.693
99 115 -188.693
100 115 -188.693
101 115 -188.693
102 115 -188.693
103 115 -188.693
104 115 -188.693
105 115 -188.693
106 115 -188.693
107 115 -188.693
108 115 -188.693
109 115 -188.693
110 115 -188.693
111 115 -188.693
112 115 -188.693
113 115 -188.693
114 115 -188.693
115 115 -188.693
116 115 -188.693
117 115 -188.693
118 115 -188.693
119 115 -188.693
0 116 -188.693
1 116 -188.693
2 116 -188.693
3 116 -188.693
4 116 -188.693
5 116 -188.693
6 116 -188.693
7 116 -188.693
8 116 -188.693
9 116 -188.693
10 116 -188.693
11 116 -188.693
12 116 -188.693
13 116 -188.693
14 116 -188.693
15 116 -188.693
16 116 -188.693
17 116 -188.693
18 116 -188.693
19 116 -188.693
20 116 -188.693
21 116 -188.693
22 116 -188.693
23 116 -188.693
24 116 -188.693
25 116 -188.693
26 116 -188.693
27 116 -188.693
28 116 -188.693
29 116 -188.693
30 116 -188.693
31 116 -188.693
32 116 -188.693
33 116 -188.693
34 116 -188.693
35 116 -188.693
36 116 -5.70508
37 116 -2.5064
38 116 0.74069
39 116 2.81332
40 116 4.63574
41 116 6.16733
42 116 7.4336
43 116 8.38546
44 116 9.18258
45 116 9.81551
46 116 10.2794
47 116 10.615
48 116 10.7973
49 116 10.9219
50 116 10.9291
51 116 10.7661
52 116 10.5464
53 116 10.3027
54 116 10.0402
55 116 9.78689
56 116 9.46085
57 116 9.1687
58 116 8.92497
59 116 8.69331
60 116 8.50941
61 116 8.33183
62 116 8.19355
63 116 8.06001
64 116 7.95055
65 116 7.86532
66 116 7.77732
67 116 7.68428
68 116 7.64457
69 116 7.59626
70 116 7.52735
71 116 7.43726
72 116 7.32417
73 116 7.20122
74 116 7.07011
75 116 6.9153
76 116 6.74201
77 116 6.56247
78 116 6.34318
79 116 5.99697
80 116 5.57395
81 116 5.10692
82 116 4.5736
83 116 3.98622
84 116 3.36197
85 116 2.66692
86 116 1.84848
87 116 0.92632
88 116 -0.0858717
89 116 -1.14105
90 116 -2.39556
91 116 -3.95753
92 116 -5.82039
93 116 -188.693
94 116 -188.693
95 116 -188.693
96 116 -188.693
97 116 -188.693
98 116 -188.693
99 116 -188.693
100 116 -188.693
101 116 -188.693
102 116 -188.693
103 116 -188.693
104 116 -188.693
105 116 -188.693
106 116 -188.693
107 116 -188.693
108 116 -188.693
109 116 -188.693
110 116 -188.693
111 116 -188.693
112 116 -188.693
113 116 -188.693
114 116 -188.693
115 116 -188.693
116 116 -188.693
117 116 -188.693
118 116 -188.693
119 116 -188.693
0 117 -188.693
1 117 -188.693
2 117 -188.693
3 117 -188.693
4 117 -188.693
5 117 -188.693
6 117 -188.693
7 117 -188.693
8 117 -188.693
9 117 -188.693
10 117 -188.693
11 117 -188.693
12 117 -188.693
13 117 -188.693
14 117 -188.693
15 117 -188.693
16 117 -188.693
17 117 -188.693
18 117 -188.693
19 117 -188.693
20 117 -188.693
21 117 -188.693
22 117 -188.693
23 117 -188.693
24 117 -188.693
25 117 -188.693
26 117 -188.693
27 117 -188.693
28 117 -188.693
29 117 -188.693
30 117 -188.693
31 117 -188.693
32 117 -188.693
33 117 -188.693
34 117 -188.693
35 117 -6.66937
36 117 -3.75509
37 117 -0.627428
38 117 1.92612
39 117 3.98901
40 117 5.79657
41 117 7.36915
42 117 8.72386
43 117 9.76067
44 117 10.6021
45 117 11.144
46 117 11.4872
47 117 11.7265
48 117 11.844
49 117 11.853
50 117 11.7987
51 117 11.5827
52 117 11.3104
53 117 11.0038
54 117 10.6698
55 117 10.3527
56 117 9.98978
57 117 9.64638
58 117 9.3511
59 117 9.09323
60 117 8.86231
61 117 8.65411
62 117 8.49551
63 117 8.33568
64 117 8.21345
65 117 8.0981
66 117 7.97767
67 117 7.89095
68 117 7.82776
69 117 7.77101
70 117 7.70512
71 117 7.6183
72 117 7.51596
73 117 7.40383
74 117 7.27684
75 117 7.11292
76 117 6.9461
77 117 6.76613
78 117 6.55913
79 117 6.2233
80 117 5.80431
81 117 5.34579
82 117 4.83789
83 117 4.26575
84 117 3.67152
85 117 2.97448
86 117 2.1967
87 117 1.28245
88 117 0.28104
89 117 -0.781586
90 117 -2.08249
91 117 -3.71898
92 117 -5.57
93 117 -188.693
94 117 -188.693
95 117 -188.693
96 117 -188.693
97 117 -188.693
98 117 -188.693
99 117 -188.693
100 117 -188.693
101 117 -188.693
102 117 -188.693
103 117 -188.693
104 117 -188.693
105 117 -188.693
106 117 -188.693
107 117 -188.693
108 117 -188.693
109 117 -188.693
110 117 -188.693
111 117 -188.693
112 117 -188.693
113 117 -188.693
114 117 -188.693
115 117 -188.693
116 117 -188.693
117 117 -188.693
118 117 -188.693
119 117 -188.693
0 118 -188.693
1 118 -188.693
2 118 -188.693
3 118 -188.693
4 118 -188.693
5 118 -188.693
6 118 -188.693
7 118 -188.693
8 118 -188.693
9 118 -188.693
10 118 -188.693
11 118 -188.693
12 118 -188.693
13 118 -188.693
14 118 -188.693
15 118 -188.693
16 118 -188.693
17 118 -188.693
18 118 -188.693
19 118 -188.693
20 118 -188.693
21 118 -188.693
22 118 -188.693
23 118 -188.693
24 118 -188.693
25 118 -188.693
26 118 -188.693
27 118 -188.693
28 118 -188.693
29 118 -188.693
30 118 -188.693
31 118 -188.693
32 118 -188.693
33 118 -188.693
34 118 -188.693
35 118 -5.81785
36 118 -2.32052
37 118 1.13985
38 118 3.28646
39 118 5.28107
40 118 7.15974
41 118 8.85183
42 118 10.3589
43 118 11.3046
44 118 12.0606
45 118 12.4916
46 118 12.764
47 118 12.9475
48 118 13.0129
49 118 12.9348
50 118 12.806
51 118 12.5309
52 118 12.154
53 118 11.7689
54 118 11.3744
55 118 10.98
56 118 10.5685
57 118 10.1788
58 118 9.83461
59 118 9.51343
60 118 9.27176
61 118 9.02243
62 118 8.82065
63 118 8.65714
64 118 8.50266
65 118 8.35935
66 118 8.22401
67 118 8.10888
68 118 8.0254
69 118 7.95402
70 118 7.88641
71 118 7.80849
72 118 7.70184
73 118 7.59094
74 118 7.46446
75 118 7.33055
76 118 7.16918
77 118 6.98743
78 118 6.77147
79 118 6.44118
80 118 6.0455
81 118 5.60536
82 118 5.07899
83 118 4.54045
84 118 3.95175
85 118 3.30613
86 118 2.5478
87 118 1.65967
88 118 0.664082
89 118 -0.403757
90 118 -1.71379
91 118 -3.46973
92 118 -5.45015
93 118 -188.693
94 118 -188.693
95 118 -188.693
96 118 -188.693
97 118 -188.693
98 118 -188.693
99 118 -188.693
100 118 -188.693
101 118 -188.693
102 118 -188.693
103 118 -188.693
104 118 -188.693
105 118 -188.693
106 118 -188.693
107 118 -188.693
108 118 -188.693
109 118 -188.693
110 118 -188.693
111 118 -188.693
112 118 -188.693
113 118 -188.693
114 118 -188.693
115 118 -188.693
116 118 -188.693
117 118 -188.693
118 118 -188.693
119 118 -188.693
0 119 -188.693
1 119 -188.693
2 119 -188.693
3 119 -188.693
4 119 -188.693
5 119 -188.693
6 119 -188.693
7 119 -188.693
8 119 -188.693
9 119 -188.693
10 119 -188.693
11 119 -188.693
12 119 -188.693
13 119 -188.693
14 119 -188.693
15 119 -188.693
16 119 -188.693
17 119 -188.693
18 119 -188.693
19 119 -188.693
20 119 -188.693
21 119 -188.693
22 119 -188.693
23 119 -188.693
24 119 -188.693
25 119 -188.693
26 119 -188.693
27 119 -188.693
28 119 -188.693
29 119 -188.693
30 119 -188.693
31 119 -188.693
32 119 -188.693
33 119 -188.693
34 119 -8.53122
35 119 -4.54988
36 119 -0.731769
37 119 2.37471
38 119 4.56728
39 119 6.72762
40 119 8.6943
41 119 10.5156
42 119 11.7471
43 119 12.4902
44 119 13.0811
45 119 13.4864
46 119 13.7497
47 119 13.9196
48 119 13.9631
49 119 13.8904
50 119 13.718
51 119 13.4246
52 119 13.0454
53 119 12.6024
54 119 12.1259
55 119 11.647
56 119 11.1516
57 119 10.7248
58 119 10.3345
59 119 9.99408
60 119 9.71544
61 119 9.43137
62 119 9.21119
63 119 9.00279
64 119 8.80645
65 119 8.64003
66 119 8.47257
67 119 8.33484
68 119 8.23714
69 119 8.15839
70 119 8.09125
71 119 7.99794
72 119 7.92122
73 119 7.81106
74 119 7.68643
75 119 7.52807
76 119 7.36766
77 119 7.18962
78 119 6.98295
79 119 6.66568
80 119 6.2914
81 119 5.85369
82 119 5.35315
83 119 4.7938
84 119 4.2364
85 119 3.61863
86 119 2.89887
87 119 2.0358
88 119 1.05539
89 119 -0.0143918
90 119 -1.36311
91 119 -3.1317
92 119 -5.32933
93 119 -7.77308
94 119 -188.693
95 119 -188.693
96 119 -188.693
97 119 -188.693
98 119 -188.693
99 119 -188.693
100 119 -188.693
101 119 -188.693
102 119 -188.693
103 119 -188.693
104 119 -188.693
105 119 -188.693
106 119 -188.693
107 119 -188.693
108 119 -188.693
109 119 -188.693
110 119 -188.693
111 119 -188.693
112 119 -188.693
113 119 -188.693
114 119 -188.693
115 119 -188.693
116 119 -188.693
117 119 -188.693
118 119 -188.693
119 119 -188.693
0 120 -188.693
1 120 -188.693
2 120 -188.693
3 120 -188.693
4 120 -188.693
5 120 -188.693
6 120 -188.693
7 120 -188.693
8 120 -188.693
9 120 -188.693
10 120 -188.693
11 120 -188.693
12 120 -188.693
13 120 -188.693
14 120 -188.693
15 120 -188.693
16 120 -188.693
17 120 -188.693
18 120 -188.693
19 120 -188.693
20 120 -188.693
21 120 -188.693
22 120 -188.693
23 120 -188.693
24 120 -188.693
25 120 -188.693
26 120 -188.693
27 120 -188.693
28 120 -188.693
29 120 -188.693
30 120 -188.693
31 120 -188.693
32 120 -188.693
33 120 -188.693
34 120 -7.47572
35 120 -3.29265
36 120 0.978056
37 120 3.42654
38 120 5.89551
39 120 8.4423
40 120 10.6437
41 120 11.8989
42 120 12.8337
43 120 13.5398
44 120 14.1088
45 120 14.51
46 120 14.7299
47 120 14.8534
48 120 14.8543
49 120 14.7865
50 120 14.5783
51 120 14.2562
52 120 13.8448
53 120 13.3961
54 120 12.887
55 120 12.3525
56 120 11.8194
57 120 11.3257
58 120 10.8888
59 120 10.5185
60 120 10.1964
61 120 9.87107
62 120 9.61728
63 120 9.35948
64 120 9.13293
65 120 8.92986
66 120 8.73745
67 120 8.58433
68 120 8.47193
69 120 8.38042
70 120 8.29752
71 120 8.20792
72 120 8.10482
73 120 7.99938
74 120 7.88001
75 120 7.73802
76 120 7.58072
77 120 7.39796
78 120 7.19787
79 120 6.88913
80 120 6.51923
81 120 6.09188
82 120 5.61011
83 120 5.08006
84 120 4.53534
85 120 3.94508
86 120 3.25061
87 120 2.44125
88 120 1.46097
89 120 0.404192
90 120 -0.934646
91 120 -2.70685
92 120 -5.06635
93 120 -7.66898
94 120 -188.693
95 120 -188.693
96 120 -188.693
97 120 -188.693
98 120 -188.693
99 120 -188.693
100 120 -188.693
101 120 -188.693
102 120 -188.693
103 120 -188.693
104 120 -188.693
105 120 -188.693
106 120 -188.693
107 120 -188.693
108 120 -188.693
109 120 -188.693
110 120 -188.693
111 120 -188.693
112 120 -188.693
113 120 -188.693
114 120 -188.693
115 120 -188.693
116 120 -188.693
117 120 -188.693
118 120 -188.693
119 120 -188.693
0 121 -188.693
1 121 -188.693
2 121 -188.693
3 121 -188.693
4 121 -188.693
5 121 -188.693
6 121 -188.693
7 121 -188.693
8 121 -188.693
9 121 -188.693
10 121 -188.693
11 121 -188.693
12 121 -188.693
13 121 -188.693
14 121 -188.693
15 121 -188.693
16 121 -188.693
17 121 -188.693
18 121 -188.693
19 121 -188.693
20 121 -188.693
21 121 -188.693
22 121 -188.693
23 121 -188.693
24 121 -188.693
25 121 -188.693
26 121 -188.693
27 121 -188.693
28 121 -188.693
29 121 -188.693
30 121 -188.693
31 121 -188.693
32 121 -188.693
33 121 -9.53654
34 121 -5.747
35 121 -1.53969
36 121 1.69826
37 121 3.82316
38 121 7.73072
39 121 10.5475
40 121 12.144
41 121 13.1735
42 121 14.0306
43 121 14.6049
44 121 15.0351
45 121 15.3482
46 121 15.5843
47 121 15.6987
48 121 15.6787
49 121 15.5966
50 121 15.3693
51 121 15.0335
52 121 14.5751
53 121 14.0819
54 121 13.5477
55 121 13.0139
56 121 12.4856
57 121 11.9607
58 121 11.4683
59 121 11.0432
60 121 10.6653
61 121 10.3053
62 121 9.99257
63 121 9.71782
64 121 9.45045
65 121 9.23291
66 121 9.02853
67 121 8.87131
68 121 8.72113
69 121 8.62261
70 121 8.53002
71 121 8.43964
72 121 8.32765
73 121 8.21144
74 121 8.09159
75 121 7.96029
76 121 7.78786
77 121 7.61205
78 121 7.41003
79 121 7.11402
80 121 6.77458
81 121 6.3613
82 121 5.9113
83 121 5.39419
84 121 4.84505
85 121 4.26528
86 121 3.61607
87 121 2.83334
88 121 1.908
89 121 0.864293
90 121 -0.481256
91 121 -2.30961
92 121 -4.91124
93 121 -7.78991
94 121 -188.693
95 121 -188.693
96 121 -188.693
97 121 -188.693
98 121 -188.693
99 121 -188.693
100 121 -188.693
101 121 -188.693
102 121 -188.693
103 121 -188.693
104 121 -188.693
105 121 -188.693
106 121 -188.693
107 121 -188.693
108 121 -188.693
109 121 -188.693
110 121 -188.693
111 121 -188.693
112 121 -188.693
113 121 -188.693
114 121 -188.693
115 121 -188.693
116 121 -188.693
117 121 -188.693
118 121 -188.693
119 121 -188.693
0 122 -188.693
1 122 -188.693
2 122 -188.693
3 122 -188.693
4 122 -188.693
5 122 -188.693
6 122 -188.693
7 122 -188.693
8 122 -188.693
9 122 -188.693
10 122 -188.693
11 122 -188.693
12 122 -188.693
13 122 -188.693
14 122 -188.693
15 122 -188.693
16 122 -188.693
17 122 -188.693
18 122 -188.693
19 122 -188.693
20 122 -188.693
21 122 -188.693
22 122 -188.693
23 122 -188.693
24 122 -188.693
25 122 -188.693
26 122 -188.693
27 122 -188.693
28 122 -188.693
29 122 -188.693
30 122 -188.693
31 122 -188.693
32 122 -188.693
33 122 -7.99711
34 122 -4.26898
35 122 0.645447
36 122 2.58201
37 122 6.27694
38 122 9.85776
39 122 12.0545
40 122 13.6187
41 122 14.5295
42 122 15.2348
43 122 15.6868
44 122 16.0159
45 122 16.2609
46 122 16.4067
47 122 16.4674
48 122 16.427
49 122 16.2892
50 122 16.0913
51 122 15.7381
52 122 15.2976
53 122 14.7577
54 122 14.1814
55 122 13.6454
56 122 13.1131
57 122 12.5741
58 122 12.0441
59 122 11.5788
60 122 11.1372
61 122 10.7449
62 122 10.3972
63 122 10.0836
64 122 9.80079
65 122 9.55025
66 122 9.35555
67 122 9.18163
68 122 9.02215
69 122 8.89695
70 122 8.79122
71 122 8.68359
72 122 8.55756
73 122 8.43615
74 122 8.31166
75 122 8.16292
76 122 8.01066
77 122 7.84993
78 122 7.65165
79 122 7.37095
80 122 7.05205
81 122 6.67977
82 122 6.25665
83 122 5.75509
84 122 5.19758
85 122 4.62743
86 122 4.00142
87 122 3.26574
88 122 2.37102
89 122 1.34962
90 122 -0.00348537
91 122 -1.79156
92 122 -4.73286
93 122 -7.92709
94 122 -188.693
95 122 -188.693
96 122 -188.693
97 122 -188.693
98 122 -188.693
99 122 -188.693
100 122 -188.693
101 122 -188.693
102 122 -188.693
103 122 -188.693
104 122 -188.693
105 122 -188.693
106 122 -188.693
107 122 -188.693
108 122 -188.693
109 122 -188.693
110 122 -188.693
111 122 -188.693
112 122 -188.693
113 122 -188.693
114 122 -188.693
115 122 -188.693
116 122 -188.693
117 122 -188.693
118 122 -188.693
119 122 -188.693
0 123 -188.693
1 123 -188.693
2 123 -188.693
3 123 -188.693
4 123 -188.693
5 123 -188.693
6 123 -188.693
7 123 -188.693
8 123 -188.693
9 123 -188.693
10 123 -188.693
11 123 -188.693
12 123 -188.693
13 123 -188.693
14 123 -188.693
15 123 -188.693
16 123 -188.693
17 123 -188.693
18 123 -188.693
19 123 -188.693
20 123 -188.693
21 123 -188.693
22 123 -188.693
23 123 -188.693
24 123 -188.693
25 123 -188.693
26 123 -188.693
27 123 -188.693
28 123 -188.693
29 123 -188.693
30 123 -188.693
31 123 -188.693
32 123 -188.693
33 123 -5.72986
34 123 -2.43645
35 123 0.880878
36 123 4.51982
37 123 8.90369
38 123 11.6464
39 123 13.705
40 123 14.9177
41 123 15.7402
42 123 16.3188
43 123 16.674
44 123 16.9119
45 123 17.1055
46 123 17.2274
47 123 17.2538
48 123 17.1771
49 123 17.0265
50 123 16.8023
51 123 16.4244
52 123 15.9897
53 123 15.4372
54 123 14.8265
55 123 14.2609
56 123 13.691
57 123 13.1542
58 123 12.6229
59 123 12.1173
60 123 11.6244
61 123 11.1874
62 123 10.7949
63 123 10.4478
64 123 10.1558
65 123 9.87979
66 123 9.66013
67 123 9.49184
68 123 9.32639
69 123 9.18848
70 123 9.07945
71 123 8.96722
72 123 8.84418
73 123 8.68534
74 123 8.54908
75 123 8.39863
76 123 8.2431
77 123 8.07921
78 123 7.89894
79 123 7.65877
80 123 7.37902
81 123 7.04712
82 123 6.6421
83 123 6.1578
84 123 5.62522
85 123 5.03897
86 123 4.42371
87 123 3.70345
88 123 2.84471
89 123 1.83359
90 123 0.541334
91 123 -1.29845
92 123 -4.32165
93 123 -7.9816
94 123 -188.693
95 123 -188.693
96 123 -188.693
97 123 -188.693
98 123 -188.693
99 123 -188.693
100 123 -188.693
101 123 -188.693
102 123 -188.693
103 123 -188.693
104 123 -188.693
105 123 -188.693
106 123 -188.693
107 123 -188.693
108 123 -188.693
109 123 -188.693
110 123 -188.693
111 123 -188.693
112 123 -188.693
113 123 -188.693
114 123 -188.693
115 123 -188.693
116 123 -188.693
117 123 -188.693
118 123 -188.693
119 123 -188.693
0 124 -188.693
1 124 -188.693
2 124 -188.693
3 124 -188.693
4 124 -188.693
5 124 -188.693
6 124 -188.693
7 124 -188.693
8 124 -188.693
9 124 -188.693
10 124 -188.693
11 124 -188.693
12 124 -188.693
13 124 -188.693
14 124 -188.693
15 124 -188.693
16 124 -188.693
17 124 -188.693
18 124 -188.693
19 124 -188.693
20 124 -188.693
21 124 -188.693
22 124 -188.693
23 124 -188.693
24 124 -188.693
25 124 -188.693
26 124 -188.693
27 124 -188.693
28 124 -188.693
29 124 -188.693
30 124 -188.693
31 124 -188.693
32 124 -188.693
33 124 -3.76738
34 124 -0.375787
35 124 2.86473
36 124 7.77829
37 124 10.8853
38 124 13.4284
39 124 14.8446
40 124 15.833
41 124 16.6472
42 124 17.2048
43 124 17.5445
44 124 17.7813
45 124 17.8818
46 124 17.933
47 124 17.9411
48 124 17.856
49 124 17.7214
50 124 17.4782
51 124 17.1063
52 124 16.6523
53 124 16.1291
54 124 15.5025
55 124 14.8831
56 124 14.298
57 124 13.7407
58 124 13.2034
59 124 12.681
60 124 12.137
61 124 11.6336
62 124 11.1965
63 124 10.8313
64 124 10.4987
65 124 10.237
66 124 10.0048
67 124 9.8133
68 124 9.65915
69 124 9.52447
70 124 9.40446
71 124 9.27927
72 124 9.15822
73 124 8.99406
74 124 8.83891
75 124 8.66728
76 124 8.50807
77 124 8.32913
78 124 8.15255
79 124 8.00079
80 124 7.76736
81 124 7.48012
82 124 7.10278
83 124 6.65733
84 124 6.11282
85 124 5.51396
86 124 4.87287
87 124 4.17327
88 124 3.34345
89 124 2.34523
90 124 1.0925
91 124 -0.684559
92 124 -3.80425
93 124 -7.86243
94 124 -188.693
95 124 -188.693
96 124 -188.693
97 124 -188.693
98 124 -188.693
99 124 -188.693
100 124 -188.693
101 124 -188.693
102 124 -188.693
103 124 -188.693
104 124 -188.693
105 124 -188.693
106 124 -188.693
107 124 -188.693
108 124 -188.693
109 124 -188.693
110 124 -188.693
111 124 -188.693
112 124 -188.693
113 124 -188.693
114 124 -188.693
115 124 -188.693
116 124 -188.693
117 124 -188.693
118 124 -188.693
119 124 -188.693
0 125 -188.693
1 125 -188.693
2 125 -188.693
3 125 -188.693
4 125 -188.693
5 125 -188.693
6 125 -188.693
7 125 -188.693
8 125 -188.693
9 125 -188.693
10 125 -188.693
11 125 -188.693
12 125 -188.693
13 125 -188.693
14 125 -188.693
15 125 -188.693
16 125 -188.693
17 125 -188.693
18 125 -188.693
19 125 -188.693
20 125 -188.693
21 125 -188.693
22 125 -188.693
23 125 -188.693
24 125 -188.693
25 125 -188.693
26 125 -188.693
27 125 -188.693
28 125 -188.693
29 125 -188.693
30 125 -188.693
31 125 -188.693
32 125 -188.693
33 125 -1.89312
34 125 1.75429
35 125 6.32386
36 125 9.85145
37 125 12.7097
38 125 14.4541
39 125 15.636
40 125 16.5508
41 125 17.2697
42 125 17.7904
43 125 18.1421
44 125 18.4097
45 125 18.5846
46 125 18.6602
47 125 18.6308
48 125 18.5209
49 125 18.3703
50 125 18.1051
51 125 17.7671
52 125 17.3079
53 125 16.792
54 125 16.1859
55 125 15.5285
56 125 14.9123
57 125 14.3366
58 125 13.7777
59 125 13.204
60 125 12.6556
61 125 12.0836
62 125 11.6041
63 125 11.1835
64 125 10.8499
65 125 10.5905
66 125 10.384
67 125 10.2019
68 125 10.0479
69 125 9.90783
70 125 9.77146
71 125 9.61585
72 125 9.45428
73 125 9.28682
74 125 9.13374
75 125 8.9695
76 125 8.81614
77 125 8.67329
78 125 8.53167
79 125 8.39552
80 125 8.20564
81 125 7.97061
82 125 7.64241
83 125 7.21288
84 125 6.66104
85 125 6.04839
86 125 5.38812
87 125 4.69846
88 125 3.87645
89 125 2.89176
90 125 1.67968
91 125 -0.0356166
92 125 -3.04836
93 125 -7.65049
94 125 -188.693
95 125 -188.693
96 125 -188.693
97 125 -188.693
98 125 -188.693
99 125 -188.693
100 125 -188.693
101 125 -188.693
102 125 -188.693
103 125 -188.693
104 125 -188.693
105 125 -188.693
106 125 -188.693
107 125 -188.693
108 125 -188.693
109 125 -188.693
110 125 -188.693
111 125 -188.693
112 125 -188.693
113 125 -188.693
114 125 -188.693
115 125 -188.693
116 125 -188.693
117 125 -188.693
118 125 -188.693
119 125 -188.693
0 126 -188.693
1 126 -188.693
2 126 -188.693
3 126 -188.693
4 126 -188.693
5 126 -188.693
6 126 -188.693
7 126 -188.693
8 126 -188.693
9 126 -188.693
10 126 -188.693
11 126 -188.693
12 126 -188.693
13 126 -188.693
14 126 -188.693
15 126 -188.693
16 126 -188.693
17 126 -188.693
18 126 -188.693
19 126 -188.693
20 126 -188.693
21 126 -188.693
22 126 -188.693
23 126 -188.693
24 126 -188.693
25 126 -188.693
26 126 -188.693
27 126 -188.693
28 126 -188.693
29 126 -188.693
30 126 -188.693
31 126 -188.693
32 126 -2.58548
33 126 0.860736
34 126 4.90788
35 126 8.61813
36 126 11.5976
37 126 13.7068
38 126 15.0981
39 126 16.2586
40 126 17.1381
41 126 17.7791
42 126 18.2354
43 126 18.5607
44 126 18.8172
45 126 18.9867
46 126 19.0922
47 126 19.1383
48 126 19.1243
49 126 19.0116
50 126 18.7517
51 126 18.3897
52 126 17.9364
53 126 17.3928
54 126 16.801
55 126 16.1451
56 126 15.5018
57 126 14.9087
58 126 14.3196
59 126 13.739
60 126 13.1429
61 126 12.5355
62 126 11.9975
63 126 11.5693
64 126 11.2227
65 126 10.9575
66 126 10.7499
67 126 10.59
68 126 10.4625
69 126 10.3113
70 126 10.1903
71 126 10.047
72 126 9.90793
73 126 9.73984
74 126 9.58266
75 126 9.41806
76 126 9.25702
77 126 9.11855
78 126 8.99861
79 126 8.92219
80 126 8.78994
81 126 8.61905
82 126 8.3199
83 126 7.90483
84 126 7.2857
85 126 6.66446
86 126 5.96848
87 126 5.24076
88 126 4.42406
89 126 3.4546
90 126 2.2422
91 126 0.643555
92 126 -2.10874
93 126 -7.33317
94 126 -188.693
95 126 -188.693
96 126 -188.693
97 126 -188.693
98 126 -188.693
99 126 -188.693
100 126 -188.693
101 126 -188.693
102 126 -188.693
103 126 -188.693
104 126 -188.693
105 126 -188.693
106 126 -188.693
107 126 -188.693
108 126 -188.693
109 126 -188.693
110 126 -188.693
111 126 -188.693
112 126 -188.693
113 126 -188.693
114 126 -188.693
115 126 -188.693
116 126 -188.693
117 126 -188.693
118 126 -188.693
119 126 -188.693
0 127 -188.693
1 127 -188.693
2 127 -188.693
3 127 -188.693
4 127 -188.693
5 127 -188.693
6 127 -188.693
7 127 -188.693
8 127 -188.693
9 127 -188.693
10 127 -188.693
11 127 -188.693
12 127 -188.693
13 127 -188.693
14 127 -188.693
15 127 -188.693
16 127 -188.693
17 127 -188.693
18 127 -188.693
19 127 -188.693
20 127 -188.693
21 127 -188.693
22 127 -188.693
23 127 -188.693
24 127 -188.693
25 127 -188.693
26 127 -188.693
27 127 -188.693
28 127 -3.0863
29 127 -2.53016
30 127 -1.93451
31 127 -188.693
32 127 -0.607263
33 127 2.87555
34 127 7.18389
35 127 10.4207
36 127 12.7198
37 127 14.4999
38 127 15.8149
39 127 16.8406
40 127 17.6315
41 127 18.1445
42 127 18.536
43 127 18.8365
44 127 19.0948
45 127 19.295
46 127 19.4124
47 127 19.4981
48 127 19.5304
49 127 19.4477
50 127 19.2167
51 127 18.8747
52 127 18.4376
53 127 17.933
54 127 17.3447
55 127 16.6862
56 127 16.0747
57 127 15.472
58 127 14.8863
59 127 14.2759
60 127 13.676
61 127 13.0521
62 127 12.4265
63 127 11.9566
64 127 11.6194
65 127 11.3383
66 127 11.134
67 127 10.985
68 127 10.8526
69 127 10.7302
70 127 10.6127
71 127 10.4863
72 127 10.376
73 127 10.2579
74 127 10.1527
75 127 10.0496
76 127 9.92053
77 127 9.7799
78 127 9.67149
79 127 9.60517
80 127 9.52659
81 127 9.37174
82 127 9.07507
83 127 8.65386
84 127 8.07988
85 127 7.35543
86 127 6.62792
87 127 5.87726
88 127 5.0258
89 127 4.05486
90 127 2.84537
91 127 1.28215
92 127 -1.35772
93 127 -6.78173
94 127 -188.693
95 127 -188.693
96 127 -188.693
97 127 -188.693
98 127 -188.693
99 127 -188.693
100 127 -188.693
101 127 -188.693
102 127 -188.693
103 127 -188.693
104 127 -188.693
105 127 -188.693
106 127 -188.693
107 127 -188.693
108 127 -188.693
109 127 -188.693
110 127 -188.693
111 127 -188.693
112 127 -188.693
113 127 -188.693
114 127 -188.693
115 127 -188.693
116 127 -188.693
117 127 -188.693
118 127 -188.693
119 127 -188.693
0 128 -188.693
1 128 -188.693
2 128 -188.693
3 128 -188.693
4 128 -188.693
5 128 -188.693
6 128 -188.693
7 128 -188.693
8 128 -188.693
9 128 -188.693
10 128 -188.693
11 128 -188.693
12 128 -188.693
13 128 -188.693
14 128 -188.693
15 128 -188.693
16 128 -188.693
17 128 -188.693
18 128 -188.693
19 128 -188.693
20 128 -188.693
21 128 -188.693
22 128 -188.693
23 128 -188.693
24 128 -188.693
25 128 -188.693
26 128 -2.04709
27 128 -1.30905
28 128 -0.911066
29 128 -0.442591
30 128 -0.00502383
31 128 0.256406
32 128 1.46542
33 128 4.68437
34 128 8.44499
35 128 11.5305
36 128 13.7017
37 128 15.2371
38 128 16.3776
39 128 17.295
40 128 18.0017
41 128 18.437
42 128 18.7564
43 128 19.0381
44 128 19.2818
45 128 19.4676
46 128 19.6103
47 128 19.7044
48 128 19.7726
49 128 19.7154
50 128 19.5373
51 128 19.225
52 128 18.8159
53 128 18.3042
54 128 17.7331
55 128 17.1157
56 128 16.5126
57 128 15.9147
58 128 15.3208
59 128 14.7337
60 128 14.1224
61 128 13.4953
62 128 12.8451
63 128 12.3593
64 128 11.9982
65 128 11.7147
66 128 11.4824
67 128 11.3533
68 128 11.2492
69 128 11.1438
70 128 11.0471
71 128 10.9571
72 128 10.8766
73 128 10.7886
74 128 10.7067
75 128 10.6388
76 128 10.5799
77 128 10.5002
78 128 10.4594
79 128 10.3777
80 128 10.3081
81 128 10.1581
82 128 9.86541
83 128 9.46862
84 128 8.91757
85 128 8.21701
86 128 7.39797
87 128 6.59166
88 128 5.7472
89 128 4.70029
90 128 3.48979
91 128 2.01191
92 128 -0.471979
93 128 -6.10401
94 128 -188.693
95 128 -188.693
96 128 -188.693
97 128 -188.693
98 128 -188.693
99 128 -188.693
100 128 -188.693
101 128 -188.693
102 128 -188.693
103 128 -188.693
104 128 -188.693
105 128 -188.693
106 128 -188.693
107 128 -188.693
108 128 -188.693
109 128 -188.693
110 128 -188.693
111 128 -188.693
112 128 -188.693
113 128 -188.693
114 128 -188.693
115 128 -188.693
116 128 -188.693
117 128 -188.693
118 128 -188.693
119 128 -188.693
0 129 -188.693
1 129 -188.693
2 129 -188.693
3 129 -188.693
4 129 -188.693
5 129 -188.693
6 129 -188.693
7 129 -188.693
8 129 -188.693
9 129 -188.693
10 129 -188.693
11 129 -188.693
12 129 -188.693
13 129 -188.693
14 129 -188.693
15 129 -188.693
16 129 -188.693
17 129 -188.693
18 129 -188.693
19 129 -188.693
20 129 -188.693
21 129 -188.693
22 129 -188.693
23 129 -188.693
24 129 -188.693
25 129 -1.58221
26 129 -0.0880547
27 129 0.522581
28 129 0.971413
29 129 1.48403
30 129 1.94344
31 129 2.00418
32 129 3.05575
33 129 6.29698
34 129 9.45294
35 129 12.2437
36 129 14.364
37 129 15.7267
38 129 16.7811
39 129 17.6102
40 129 18.2418
41 129 18.6168
42 129 18.8741
43 129 19.1294
44 129 19.3761
45 129 19.5631
46 129 19.7049
47 129 19.8151
48 129 19.8923
49 129 19.8723
50 129 19.6949
51 129 19.4357
52 129 19.0581
53 129 18.578
54 129 18.0216
55 129 17.4476
56 129 16.8679
57 129 16.3013
58 129 15.7132
59 129 15.1224
60 129 14.5314
61 129 13.8952
62 129 13.2303
63 129 12.7305
64 129 12.3523
65 129 12.057
66 129 11.8566
67 129 11.7491
68 129 11.6757
69 129 11.5863
70 129 11.4958
71 129 11.4165
72 129 11.3561
73 129 11.3111
74 129 11.2758
75 129 11.2399
76 129 11.2114
77 129 11.1895
78 129 11.1474
79 129 11.1051
80 129 11.0303
81 129 10.9058
82 129 10.7072
83 129 10.34
84 129 9.83883
85 129 9.16507
86 129 8.31371
87 129 7.39309
88 129 6.49987
89 129 5.40371
90 129 4.1722
91 129 2.81355
92 129 0.649342
93 129 -5.23749
94 129 -10.8854
95 129 -188.693
96 129 -188.693
97 129 -188.693
98 129 -188.693
99 129 -188.693
100 129 -188.693
101 129 -188.693
102 129 -188.693
103 129 -188.693
104 129 -188.693
105 129 -188.693
106 129 -188.693
107 129 -188.693
108 129 -188.693
109 129 -188.693
110 129 -188.693
111 129 -188.693
112 129 -188.693
113 129 -188.693
114 129 -188.693
115 129 -188.693
116 129 -188.693
117 129 -188.693
118 129 -188.693
119 129 -188.693
0 130 -188.693
1 130 -188.693
2 130 -188.693
3 130 -188.693
4 130 -188.693
5 130 -188.693
6 130 -188.693
7 130 -188.693
8 130 -188.693
9 130 -188.693
10 130 -188.693
11 130 -188.693
12 130 -188.693
13 130 -188.693
14 130 -188.693
15 130 -188.693
16 130 -188.693
17 130 -188.693
18 130 -188.693
19 130 -188.693
20 130 -188.693
21 130 -188.693
22 130 -188.693
23 130 -4.84272
24 130 -1.57872
25 130 0.527657
26 130 1.5297
27 130 2.10277
28 130 2.56442
29 130 3.14471
30 130 3.48231
31 130 3.34032
32 130 4.32983
33 130 7.39771
34 130 10.2083
35 130 12.8721
36 130 14.7367
37 130 15.9529
38 130 16.9705
39 130 17.735
40 130 18.3303
41 130 18.6552
42 130 18.8947
43 130 19.1322
44 130 19.3673
45 130 19.5506
46 130 19.6845
47 130 19.8024
48 130 19.8844
49 130 19.8616
50 130 19.7223
51 130 19.4796
52 130 19.1511
53 130 18.7088
54 130 18.2056
55 130 17.6757
56 130 17.127
57 130 16.5895
58 130 16.0343
59 130 15.452
60 130 14.8677
61 130 14.2401
62 130 13.5999
63 130 13.0814
64 130 12.6827
65 130 12.3958
66 130 12.2199
67 130 12.1265
68 130 12.0665
69 130 11.9994
70 130 11.9319
71 130 11.8825
72 130 11.844
73 130 11.8237
74 130 11.8269
75 130 11.8277
76 130 11.8379
77 130 11.8304
78 130 11.7983
79 130 11.7629
80 130 11.7013
81 130 11.5993
82 130 11.4362
83 130 11.1167
84 130 10.701
85 130 10.116
86 130 9.36937
87 130 8.46503
88 130 7.39133
89 130 6.18677
90 130 4.8876
91 130 3.59198
92 130 1.60301
93 130 -4.44701
94 130 -188.693
95 130 -188.693
96 130 -188.693
97 130 -188.693
98 130 -188.693
99 130 -188.693
100 130 -188.693
101 130 -188.693
102 130 -188.693
103 130 -188.693
104 130 -188.693
105 130 -188.693
106 130 -188.693
107 130 -188.693
108 130 -188.693
109 130 -188.693
110 130 -188.693
111 130 -188.693
112 130 -188.693
113 130 -188.693
114 130 -188.693
115 130 -188.693
116 130 -188.693
117 130 -188.693
118 130 -188.693
119 130 -188.693
0 131 -188.693
1 131 -188.693
2 131 -188.693
3 131 -188.693
4 131 -188.693
5 131 -188.693
6 131 -188.693
7 131 -188.693
8 131 -188.693
9 131 -188.693
10 131 -188.693
11 131 -188.693
12 131 -188.693
13 131 -188.693
14 131 -188.693
15 131 -188.693
16 131 -188.693
17 131 -188.693
18 131 -188.693
19 131 -188.693
20 131 -188.693
21 131 -188.693
22 131 -6.3824
23 131 -2.99839
24 131 0.1039
25 131 2.63691
26 131 3.11145
27 131 3.5406
28 131 3.8832
29 131 4.16882
30 131 4.2789
31 131 4.33841
32 131 5.33598
33 131 8.17146
34 131 10.722
35 131 13.1887
36 131 14.7986
37 131 15.9692
38 131 16.956
39 131 17.6969
40 131 18.2528
41 131 18.5388
42 131 18.7982
43 131 19.0372
44 131 19.2481
45 131 19.4358
46 131 19.5806
47 131 19.6765
48 131 19.7522
49 131 19.7303
50 131 19.6031
51 131 19.3966
52 131 19.1053
53 131 18.757
54 131 18.3007
55 131 17.809
56 131 17.3104
57 131 16.7855
58 131 16.2622
59 131 15.7115
60 131 15.1381
61 131 14.5218
62 131 13.8769
63 131 13.3725
64 131 12.9686
65 131 12.6934
66 131 12.5301
67 131 12.4809
68 131 12.4319
69 131 12.3865
70 131 12.3366
71 131 12.3289
72 131 12.2982
73 131 12.3077
74 131 12.3551
75 131 12.3826
76 131 12.4026
77 131 12.4278
78 131 12.4064
79 131 12.3692
80 131 12.3137
81 131 12.2296
82 131 12.0739
83 131 11.8176
84 131 11.4443
85 131 10.9396
86 131 10.2912
87 131 9.5069
88 131 8.51019
89 131 7.1764
90 131 5.72492
91 131 4.39391
92 131 2.41268
93 131 -3.75442
94 131 -188.693
95 131 -188.693
96 131 -188.693
97 131 -188.693
98 131 -188.693
99 131 -188.693
100 131 -188.693
101 131 -188.693
102 131 -188.693
103 131 -188.693
104 131 -188.693
105 131 -188.693
106 131 -188.693
107 131 -188.693
108 131 -188.693
109 131 -188.693
110 131 -188.693
111 131 -188.693
112 131 -188.693
113 131 -188.693
114 131 -188.693
115 131 -188.693
116 131 -188.693
117 131 -188.693
118 131 -188.693
119 131 -188.693
0 132 -188.693
1 132 -188.693
2 132 -188.693
3 132 -188.693
4 132 -188.693
5 132 -188.693
6 132 -188.693
7 132 -188.693
8 132 -188.693
9 132 -188.693
10 132 -188.693
11 132 -188.693
12 132 -188.693
13 132 -188.693
14 132 -188.693
15 132 -188.693
16 132 -188.693
17 132 -188.693
18 132 -188.693
19 132 -188.693
20 132 -188.693
21 132 -6.11522
22 132 -4.16845
23 132 -0.939119
24 132 2.27372
25 132 3.62869
26 132 4.20101
27 132 4.53946
28 132 4.78338
29 132 4.93541
30 132 4.8854
31 132 5.13831
32 132 6.17918
33 132 8.64375
34 132 10.9481
35 132 13.1974
36 132 14.6218
37 132 15.7907
38 132 16.7341
39 132 17.4574
40 132 17.9908
41 132 18.3231
42 132 18.6027
43 132 18.8362
44 132 19.0436
45 132 19.2195
46 132 19.3744
47 132 19.4624
48 132 19.5048
49 132 19.4769
50 132 19.388
51 132 19.2406
52 132 19.0343
53 132 18.7522
54 132 18.3483
55 132 17.8876
56 132 17.4103
57 132 16.9202
58 132 16.4149
59 132 15.9007
60 132 15.3543
61 132 14.7435
62 132 14.1348
63 132 13.6208
64 132 13.2315
65 132 12.9812
66 132 12.8294
67 132 12.7846
68 132 12.7542
69 132 12.7301
70 132 12.7049
71 132 12.7246
72 132 12.748
73 132 12.7988
74 132 12.8488
75 132 12.9009
76 132 12.9463
77 132 12.9791
78 132 12.9799
79 132 12.9841
80 132 12.9226
81 132 12.8395
82 132 12.6902
83 132 12.4448
84 132 12.1055
85 132 11.6532
86 132 11.0852
87 132 10.3813
88 132 9.58416
89 132 8.42526
90 132 6.75698
91 132 5.16112
92 132 3.12669
93 132 -3.08373
94 132 -188.693
95 132 -188.693
96 132 -188.693
97 132 -188.693
98 132 -188.693
99 132 -188.693
100 132 -188.693
101 132 -188.693
102 132 -188.693
103 132 -188.693
104 132 -188.693
105 132 -188.693
106 132 -188.693
107 132 -188.693
108 132 -188.693
109 132 -188.693
110 132 -188.693
111 132 -188.693
112 132 -188.693
113 132 -188.693
114 132 -188.693
115 132 -188.693
116 132 -188.693
117 132 -188.693
118 132 -188.693
119 132 -188.693
0 133 -188.693
1 133 -188.693
2 133 -188.693
3 133 -188.693
4 133 -188.693
5 133 -188.693
6 133 -188.693
7 133 -188.693
8 133 -188.693
9 133 -188.693
10 133 -188.693
11 133 -188.693
12 133 -188.693
13 133 -188.693
14 133 -188.693
15 133 -188.693
16 133 -188.693
17 133 -188.693
18 133 -188.693
19 133 -188.693
20 133 -188.693
21 133 -3.95838
22 133 -2.17299
23 133 1.40837
24 133 3.06027
25 133 4.23928
26 133 4.85249
27 133 5.27363
28 133 5.4971
29 133 5.55994
30 133 5.41267
31 133 5.7268
32 133 6.7686
33 133 8.80223
34 133 10.9867
35 133 12.9806
36 133 14.3166
37 133 15.4486
38 133 16.3999
39 133 17.1446
40 133 17.7318
41 133 18.0632
42 133 18.3683
43 133 18.6237
44 133 18.8199
45 133 18.9944
46 133 19.1304
47 133 19.22
48 133 19.2359
49 133 19.2154
50 133 19.162
51 133 19.0423
52 133 18.8987
53 133 18.666
54 133 18.3375
55 133 17.9093
56 133 17.4505
57 133 16.995
58 133 16.519
59 133 16.0362
60 133 15.5054
61 133 14.9471
62 133 14.3494
63 133 13.8353
64 133 13.4663
65 133 13.2195
66 133 13.0996
67 133 13.0647
68 133 13.0563
69 133 13.0344
70 133 13.0385
71 133 13.0768
72 133 13.1262
73 133 13.1986
74 133 13.2574
75 133 13.321
76 133 13.37
77 133 13.4196
78 133 13.461
79 133 13.4811
80 133 13.4556
81 133 13.3737
82 133 13.2454
83 133 13.0148
84 133 12.6842
85 133 12.2391
86 133 11.7411
87 133 11.1336
88 133 10.4378
89 133 9.57801
90 133 8.15867
91 133 6.2563
92 133 4.00775
93 133 -2.19101
94 133 -188.693
95 133 -188.693
96 133 -188.693
97 133 -188.693
98 133 -188.693
99 133 -188.693
100 133 -188.693
101 133 -188.693
102 133 -188.693
103 133 -188.693
104 133 -188.693
105 133 -188.693
106 133 -188.693
107 133 -188.693
108 133 -188.693
109 133 -188.693
110 133 -188.693
111 133 -188.693
112 133 -188.693
113 133 -188.693
114 133 -188.693
115 133 -188.693
116 133 -188.693
117 133 -188.693
118 133 -188.693
119 133 -188.693
0 134 -188.693
1 134 -188.693
2 134 -188.693
3 134 -188.693
4 134 -188.693
5 134 -188.693
6 134 -188.693
7 134 -188.693
8 134 -188.693
9 134 -188.693
10 134 -188.693
11 134 -188.693
12 134 -188.693
13 134 -188.693
14 134 -188.693
15 134 -188.693
16 134 -188.693
17 134 -188.693
18 134 -188.693
19 134 -188.693
20 134 -2.08468
21 134 -1.18367
22 134 0.0590732
23 134 2.15103
24 134 3.66112
25 134 4.74455
26 134 5.37589
27 134 5.80301
28 134 6.02384
29 134 6.09631
30 134 5.9475
31 134 6.25846
32 134 7.33649
33 134 8.82757
34 134 10.8043
35 134 12.6309
36 134 13.9994
37 134 15.1215
38 134 16.0467
39 134 16.8292
40 134 17.3965
41 134 17.778
42 134 18.104
43 134 18.3839
44 134 18.5908
45 134 18.7561
46 134 18.8886
47 134 18.9767
48 134 18.9916
49 134 18.9541
50 134 18.8936
51 134 18.8094
52 134 18.6967
53 134 18.5327
54 134 18.2627
55 134 17.898
56 134 17.4588
57 134 17.0335
58 134 16.5797
59 134 16.1169
60 134 15.6209
61 134 15.0788
62 134 14.501
63 134 14.0094
64 134 13.6607
65 134 13.446
66 134 13.3515
67 134 13.3088
68 134 13.3009
69 134 13.3093
70 134 13.3134
71 134 13.3682
72 134 13.4429
73 134 13.5071
74 134 13.5809
75 134 13.6487
76 134 13.699
77 134 13.7556
78 134 13.807
79 134 13.8601
80 134 13.8687
81 134 13.8414
82 134 13.7359
83 134 13.5431
84 134 13.2449
85 134 12.819
86 134 12.3094
87 134 11.728
88 134 11.0696
89 134 10.3802
90 134 9.25786
91 134 7.34072
92 134 4.98835
93 134 -1.09828
94 134 -188.693
95 134 -188.693
96 134 -188.693
97 134 -188.693
98 134 -188.693
99 134 -188.693
100 134 -188.693
101 134 -188.693
102 134 -188.693
103 134 -188.693
104 134 -188.693
105 134 -188.693
106 134 -188.693
107 134 -188.693
108 134 -188.693
109 134 -188.693
110 134 -188.693
111 134 -188.693
112 134 -188.693
113 134 -188.693
114 134 -188.693
115 134 -188.693
116 134 -188.693
117 134 -188.693
118 134 -188.693
119 134 -188.693
0 135 -188.693
1 135 -188.693
2 135 -188.693
3 135 -188.693
4 135 -188.693
5 135 -188.693
6 135 -188.693
7 135 -188.693
8 135 -188.693
9 135 -188.693
10 135 -188.693
11 135 -188.693
12 135 -188.693
13 135 -188.693
14 135 -188.693
15 135 -188.693
16 135 -188.693
17 135 -188.693
18 135 -188.693
19 135 -1.55081
20 135 -0.342315
21 135 0.519294
22 135 1.6434
23 135 3.03332
24 135 4.27641
25 135 5.25604
26 135 5.86654
27 135 6.18591
28 135 6.36413
29 135 6.51193
30 135 6.46951
31 135 6.8293
32 135 7.75791
33 135 8.94057
34 135 10.4888
35 135 12.2492
36 135 13.6348
37 135 14.7594
38 135 15.6699
39 135 16.454
40 135 17.0534
41 135 17.4711
42 135 17.8405
43 135 18.1368
44 135 18.3505
45 135 18.5014
46 135 18.6347
47 135 18.7241
48 135 18.7451
49 135 18.7056
50 135 18.6377
